0 0 0 0 0 0 0 0 0 0 0 0 0 0 0 0 0 0 0 0 0 0 0 0 0 0 0 0 0 0 0 0 0 0 0 0 0 0 2086 2083 2086 2083 2083 2083 2075 2072 2072 2061 2057 2047 2036 2040 2029 2026 2005 0 0 0 0 0 1648 1648 1645 1643 1641 1641 1641 1641 1641 1641 1643 1643 1648 1650 1652 1655 1657 0 3792 3792 3768 3768 3756 3756 3732 3720 3685 3674 0 0 0 0 3105 0 0 0 0 0 0 0 0 2120 2120 2120 2120 2120 2120 2120 2120 2120 2120 2120 2120 2120 2120 2124 2124 2124 2124 2124 2124 2124 2124 2124 2124 2128 2128 2128 2128 2128 2132 2132 2135 2135 2132 2128 2132 2128 2124 2124 2124 2124 2124 2124 2128 2128 2124 2124 2124 2124 2120 2120 2120 2113 2116 2113 2113 2113 2113 2113 2113 2113 2109 2109 2109 2109 2109 2109 2105 2109 2109 2113 2113 2116 2120 2124 2124 2128 2132 2132 2132 2135 2132 2132 2132 2132 2132 2132 2135 2135 2135 2135 2139 2143 2147 2155 2167 2171 2183 2187 2195 2207 2211 2211 2215 2215 2220 2228 2253 2288 2347 2380 2419 2506 2550 2577 2612 2617 2647 2670 2701 0 0 0 4414 4431 4414 4414 4414 4398 4398 4382 4349 4333 4286 4240 4180 4136 4093 4038 3997 3970 3957 3930 3917 3879 3829 3756 3674 3585 3542 3500 3459 3409 3370 3342 3323 3314 3370 3449 3510 0 0 3891 3970 4136 4180 4180 4180 4180 4151 4136 4122 4093 4051 4038 3997 3970 3943 3930 3917 3904 3904 3904 3930 3957 4010 4093 4151 4240 4302 4333 4349 4365 4365 4365 4365 4365 4382 4382 4398 4398 4414 4447 4481 4533 4585 4639 4658 4713 4770 4790 4790 4790 4790 4790 4770 4732 4713 4658 4603 4585 4533 4464 4414 4382 4349 4318 4255 4195 4151 4122 4079 4038 3997 3997 4010 4038 4051 4079 4093 4122 4136 4151 4180 4180 4151 4151 4136 4136 4122 4122 4093 4079 4079 4051 4051 4051 4038 4038 4038 4038 4038 4038 4051 4079 4093 4122 4151 4195 4240 4255 4271 4302 4318 4318 4302 4302 4302 4302 4286 4255 4225 4151 4122 4079 4038 3983 3957 3930 3917 3917 3904 3891 3891 3891 3879 3879 3879 3879 3879 3879 3879 3879 3879 3879 3879 3879 3891 3891 3904 3917 3930 3957 4010 4093 4151 4240 4286 4286 4302 4255 4136 3997 3891 3792 3574 3490 3342 3259 3232 3197 3180 3155 3121 3097 3073 3041 3018 3003 2987 2958 2921 2851 0 2726 2652 2577 2550 2533 2512 2491 2475 2470 2512 2550 2583 0 2732 2771 2858 2921 2928 2936 2943 2943 2943 2936 2936 2928 2921 2914 2900 2878 2864 0 0 0 0 0 0 0 1998 1992 1978 1955 1917 0 0 1846 1814 1801 1790 1784 1776 1782 1784 1792 1798 1803 1809 1814 1823 1828 1834 1837 1837 1837 1843 1843 1846 1851 1851 1851 1854 1851 1846 1843 1837 1834 1828 1826 1823 1817 1814 1814 1814 1814 1814 1812 1812 1812 1809 1809 1809 1809 1806 1803 1803 1803 1801 1801 1801 1798 1798 1798 1795 1790 1782 1774 1766 1755 1742 1735 1727 1725 1722 1719 1717 1717 1715 1710 1705 1700 1692 1685 1678 1671 1664 1662 1659 1659 1659 1657 1655 1655 1655 1655 1655 1655 1652 1650 1650 1650 1648 1645 1643 1643 1643 1641 1641 1641 1641 1641 1641 1639 1639 1636 1634 1632 1627 1625 0 0 1614 0 0 0 0 0 0 0 0 0 0 0 0 0 0 0 0 0 0 0 0 0 0 0 0 0 0 0 0 0 0 0 0 0 0 0
0 0 0 0 0 0 0 0 0 0 0 0 0 0 0 0 0 0 0 0 0 0 0 0 0 0 0 0 0 0 0 0 0 0 0 0 0 0 2083 2083 2083 2083 2075 2075 2072 2065 2061 2057 2047 2040 2029 2026 2026 2019 1995 0 0 0 0 0 1650 1650 1648 1645 1643 1641 1641 1641 1641 1641 1643 1645 1648 1650 1650 1655 0 3816 3804 3804 3792 3792 3768 3768 3756 3732 3685 0 0 0 0 0 0 0 0 0 0 0 0 0 2128 2120 2120 2120 2120 2120 2120 2120 2120 2124 2120 2124 2124 2124 2124 2124 2124 2124 2124 2124 2124 2124 2124 2124 2124 2124 2124 2124 2124 2124 2128 2128 2132 2128 2128 2128 2128 2124 2124 2124 2120 2124 2120 2124 2124 2124 2124 2124 2120 2120 2120 2120 2116 2116 2116 2116 2116 2113 2113 2113 2113 2113 2109 2109 2109 2105 2105 2105 2105 2105 2109 2109 2113 2113 2116 2120 2124 2124 2128 2128 2128 2128 2132 2132 2128 2132 2132 2132 2132 2132 2135 2135 2139 2143 2143 2155 2159 2171 2179 2183 2187 2199 2207 2207 2207 2211 2211 2232 2253 2306 2366 2400 2454 2533 2566 2600 2629 2635 2652 2670 2707 0 0 0 4414 4414 4398 4398 4398 4382 4382 4349 4333 4302 4240 4195 4151 4093 4051 4010 3983 3957 3943 3930 3917 3879 3841 3768 3685 3596 3542 3510 3469 3409 3370 3342 3342 3323 3370 3459 3521 3585 3732 3879 3930 4051 4122 4136 4136 4122 4093 4093 4051 4038 3997 3983 3970 3943 3930 3917 3904 3891 3891 3891 3917 3930 3983 4051 4122 4195 4255 4302 4333 4333 4333 4333 4333 4333 4349 4349 4365 4382 4398 4414 4447 4498 4550 4603 4658 4713 4732 4790 4809 4809 4790 4790 4732 4732 4676 4639 4603 4533 4464 4414 4382 4333 4302 4225 4151 4079 0 3983 3957 3943 3930 3930 3943 3943 3957 3983 3997 4038 4051 4093 4093 4093 4093 4079 4079 4079 4051 4051 4038 4010 3997 3997 3983 3983 3970 3970 3970 3957 3957 3943 3957 3957 3957 3983 4010 4051 4079 4122 4151 4180 4225 4225 4195 4195 4225 4225 4225 4180 4136 4079 4038 3997 3970 3930 3917 3891 3879 3879 3866 3866 3866 3866 3853 3853 3853 3853 3866 3866 3866 3853 3866 3866 3866 3866 3866 3879 3879 3891 3917 3930 3983 4038 4122 4195 4255 4271 4271 4195 4079 3943 3879 3756 3563 3490 3342 3268 3223 3197 3172 3130 3097 3073 3049 3018 2995 2980 2972 2943 2885 2797 0 2707 0 2572 2544 2533 2512 2491 2475 2459 2512 2544 2572 0 2713 2751 2830 2885 2914 2921 2928 2928 2928 2921 2921 2914 2907 2885 2878 2858 2851 2837 2817 0 0 0 0 0 0 0 0 1962 1917 1896 0 0 1812 1798 1787 1782 1776 1782 1787 1792 1798 1801 1806 1812 1817 1823 1823 1826 1826 1828 1828 1834 1837 1837 1843 1843 1846 1843 1837 1834 1828 1826 1823 1823 1817 1814 1814 1812 1812 1812 1812 1812 1812 1812 1809 1809 1809 1806 1803 1803 1803 1801 1801 1798 1798 1795 1792 1792 1790 1784 1774 1766 1758 1750 1742 1735 1727 1725 1722 1719 1717 1717 1715 1707 1702 1700 1692 1685 1678 1671 1664 1662 1662 1659 1659 1659 1657 1657 1657 1655 1655 1652 1650 1650 1650 1648 1645 1643 1643 1641 1641 1641 1641 1641 1641 1641 1641 1639 1639 1636 1634 1632 1627 1625 1618 1614 0 0 0 0 0 0 0 0 0 0 0 0 0 0 0 0 0 0 0 0 0 0 0 0 0 0 0 0 0 0 0 0 0 0 0 0
0 0 0 0 0 0 0 0 0 0 0 0 0 0 0 0 0 0 0 0 0 0 0 0 0 0 0 0 0 0 0 0 0 0 0 0 0 0 2086 2083 2083 2083 2075 2072 2065 2061 2057 2047 2036 2026 2026 2022 2015 2009 0 0 0 0 1712 1662 1657 1655 1650 1648 1643 1643 1641 1641 1641 1641 1643 1645 1648 1650 1652 0 0 3829 3829 3816 3804 3804 3804 3792 3768 3756 3720 0 0 0 3250 0 0 0 0 0 0 0 0 2171 2135 2120 2124 2120 2120 2120 2120 2120 2124 2124 2124 2124 2124 2124 2124 2124 2124 2124 2124 2124 2124 2124 2124 2124 2124 2124 2124 2124 2124 2124 2124 2124 2124 2124 2124 2124 2120 2120 2120 2120 2120 2120 2120 2120 2120 2120 2120 2120 2120 2120 2120 2120 2120 2116 2116 2116 2116 2116 2116 2116 2113 2113 2113 2109 2109 2109 2105 2105 2105 2105 2105 2109 2109 2113 2113 2116 2120 2120 2124 2124 2124 2124 2128 2128 2128 2128 2128 2128 2128 2132 2132 2132 2135 2139 2143 2147 2155 2159 2167 2171 2179 2187 2195 2195 2195 2199 2199 2224 2253 2324 2385 0 2506 2550 2589 2629 2647 2652 2658 2676 2707 0 0 0 4414 4414 4398 4398 4382 4382 4349 4333 4318 4271 4225 4151 4122 4079 4038 3997 3970 3957 3943 3930 3917 3879 3841 3768 3685 3596 3553 3510 3469 3419 3380 3351 3342 3323 3380 3459 3521 3574 3720 3853 3917 4010 4079 4079 4079 4051 4051 4010 3997 3983 3970 3943 3930 3930 3917 3904 3891 3891 3891 3891 3904 3930 3970 4010 4093 4136 4225 4255 4302 4318 4302 4302 4302 4318 4318 4333 4333 4349 4382 4398 4447 4498 4550 4639 4676 4732 4770 4790 4790 4809 4790 4790 4732 4713 4676 4639 4585 4481 4431 4382 4333 4302 4225 4122 4038 3970 3930 3917 3904 3891 3891 3891 3891 3904 3917 3930 3943 3957 3983 3997 4010 4010 3997 3997 3997 3997 3997 3983 3970 3970 3957 3943 3943 3930 3930 3930 3917 3917 3904 3904 3904 3891 3904 3917 3930 3943 3970 3983 4010 4051 4093 4093 4093 4079 4079 4093 4093 4079 4038 3983 3957 3930 3917 3891 3879 3866 3841 3829 3816 3816 3816 3816 3804 3804 3804 3804 3816 3829 3829 3829 3829 3829 3841 3853 3853 3866 3866 3879 3891 3930 3957 4010 4093 4151 4225 4240 4225 4151 4038 3930 3866 3720 3553 3479 3351 3259 3223 3197 3163 3105 3089 3049 3026 3003 2980 2972 2958 2914 2851 0 0 2676 2594 2561 2539 2522 2506 2475 2470 2459 2506 2539 2566 0 2695 2738 2784 2851 2885 2900 2907 2914 2914 2907 2907 2885 2878 2864 2858 2851 2837 2830 2810 2797 0 0 0 0 0 0 0 1972 1920 0 0 0 1812 1798 1787 1776 1776 1776 1784 1790 1798 1801 1803 1809 1814 1814 1817 1817 1820 1820 1823 1823 1826 1826 1828 1834 1834 1834 1828 1826 1823 1820 1817 1817 1814 1812 1812 1812 1812 1812 1809 1809 1809 1809 1809 1806 1806 1803 1801 1801 1798 1798 1798 1795 1790 1787 1784 1784 1776 1774 1763 1758 1755 1747 1737 1732 1727 1725 1722 1719 1717 1717 1715 1707 1702 1695 1692 1685 1678 1671 1664 1662 1662 1662 1662 1659 1657 1657 1657 1655 1655 1652 1650 1650 1648 1648 1645 1643 1641 1641 1641 1641 1641 1641 1641 1641 1641 1639 1639 1636 1634 1629 1629 1625 1621 1618 1614 1612 0 0 0 0 0 0 0 0 0 0 0 0 0 0 0 0 0 0 0 0 0 0 0 0 0 0 0 0 0 0 0 0 0 0
0 0 0 0 0 0 0 0 0 0 0 0 0 0 0 0 0 0 0 0 0 0 0 0 0 0 0 0 0 0 0 0 0 0 0 0 0 0 2086 2083 2083 2075 2075 2065 2061 2057 2050 2040 2029 2022 2015 2012 2009 2005 0 0 0 0 1712 1671 1664 1659 1655 1650 1648 1643 1641 1641 1641 1643 1643 1645 1648 1650 0 0 0 3841 3829 3829 3816 3816 3804 3792 3768 3768 3732 0 0 0 0 0 0 0 0 0 0 0 0 2155 2139 2124 2124 2120 2124 2124 2124 2124 2124 2124 2124 2124 2124 2124 2124 2124 2124 2124 2128 2128 2128 2128 2128 2128 2124 2124 2124 2124 2124 2124 2124 2124 2124 2124 2120 2120 2120 2120 2120 2116 2116 2116 2116 2116 2120 2120 2120 2120 2120 2120 2120 2120 2116 2116 2116 2116 2116 2120 2120 2116 2116 2113 2113 2109 2109 2109 2105 2105 2105 2105 2105 2105 2109 2109 2113 2116 2120 2120 2120 2120 2124 2124 2124 2124 2124 2124 2124 2124 2124 2128 2128 2132 2132 2135 2139 2143 2143 2147 2155 2159 2171 2171 2183 2183 2183 2187 2195 2215 2258 2347 0 2480 2539 2572 2617 2647 2658 2658 2670 2670 2695 0 0 0 4398 4382 4382 4365 4349 4349 4333 4318 4271 4225 4180 4122 4079 4051 4010 3983 3957 3943 3943 3930 3904 3879 3841 3768 3674 3596 3553 3510 3479 3419 3380 3351 3342 3323 3380 3469 3521 3574 3685 3816 3891 3957 3997 4010 4010 3997 3983 3970 3957 3943 3930 3917 3917 3904 3891 3891 3891 3879 3879 3891 3891 3917 3957 4010 4079 4122 4151 4225 4255 4271 4255 4255 4240 4255 4286 4318 4333 4349 4382 4398 4447 4498 4585 4639 4713 4770 4790 4809 4809 4829 4809 4790 4732 4713 4676 4639 4550 4464 4414 4365 4318 4240 4136 0 3957 3917 3891 3879 3879 3866 3866 3866 3866 3879 3879 3891 3904 3917 3917 3930 3930 3930 3930 3930 3930 3930 3930 3930 3930 3930 3917 3917 3917 3904 3891 3891 3891 3879 3866 3866 3866 3853 3866 3879 3879 3891 3917 3917 3930 0 3970 0 0 0 0 3983 3983 3970 3943 3930 3917 3904 3879 3879 3853 3841 3816 3804 3792 3768 3756 3768 3768 3756 3756 3768 3768 3792 3804 3792 3804 3804 3816 3816 3829 3841 3853 3866 3891 3917 3943 3997 4051 4122 4180 4195 4180 4122 3983 3904 3841 3685 3553 3479 3351 3268 3223 3197 3163 3105 3073 3041 3010 2987 2972 2958 2943 2878 2810 2751 0 2647 2577 2550 2539 2517 2496 2475 2470 2454 2496 2533 2555 0 2647 2713 2751 2797 2837 2858 2878 2900 2900 2885 2885 2864 2851 2837 2830 2817 2810 2797 2790 2777 0 0 0 0 0 0 0 1982 1933 1899 0 1843 1812 1798 1784 1776 1774 1774 1782 1787 1792 1798 1801 1803 1809 1809 1812 1812 1812 1812 1812 1814 1814 1817 1820 1820 1820 1820 1820 1817 1814 1812 1812 1812 1809 1809 1809 1809 1806 1806 1806 1806 1803 1806 1803 1803 1803 1801 1801 1798 1798 1792 1790 1787 1784 1776 1774 1768 1763 1758 1750 1747 1742 1740 1735 1730 1727 1725 1719 1719 1717 1717 1712 1707 1702 1695 1688 1685 1678 1671 1669 1662 1662 1662 1662 1659 1657 1657 1657 1655 1652 1650 1650 1650 1648 1648 1645 1643 1641 1641 1641 1641 1641 1639 1639 1641 1641 1639 1639 1636 1634 1632 1627 1627 1621 1618 1614 1614 1610 0 0 0 0 0 0 0 0 0 0 0 0 0 0 0 0 0 0 0 0 0 0 0 0 0 0 0 0 0 0 0 0 0
0 0 0 0 0 0 0 0 0 0 0 0 0 0 0 0 0 0 0 0 0 0 0 0 0 0 0 0 0 0 0 0 0 0 0 0 0 0 2086 2083 2083 2075 2072 2061 2057 2047 2040 2036 2026 2012 2009 2005 2002 1998 1939 0 0 0 1712 1683 1676 1664 1662 1650 1648 1645 1643 1641 1641 1643 1643 1645 1648 0 0 0 0 3841 3841 3829 3829 3816 3816 3804 3792 3792 0 0 0 0 0 0 0 0 0 0 0 0 2179 2143 2135 2124 2124 2124 2124 2124 2124 2124 2124 2124 2128 2128 2128 2128 2128 2128 2128 2132 2132 2132 2132 2132 2132 2132 2132 2132 2128 2128 2128 2124 2124 2124 2124 2124 2120 2120 2120 2120 2116 2116 2116 2116 2113 2116 2116 2116 2113 2113 2113 2116 2116 2116 2116 2116 2120 2120 2120 2120 2120 2120 2116 2113 2113 2113 2109 2109 2105 2105 2105 2105 2105 2105 2105 2109 2109 2113 2116 2120 2120 2120 2120 2120 2120 2120 2120 2124 2124 2124 2124 2124 2124 2128 2128 2128 2132 2135 2139 2143 2147 2155 2159 2159 2171 2171 2179 2183 2187 2215 2253 0 0 2522 2555 2594 2647 2647 2658 2670 2658 2670 2695 0 0 0 0 4349 4349 4333 4318 4318 4286 4255 4195 4151 4093 4079 4038 4010 3997 3970 3957 3943 3930 3917 3891 3879 3829 3756 3674 3596 3542 3510 3479 3419 3380 3351 3342 3323 3380 3459 3510 3553 3651 3768 3866 3917 3943 3957 3957 3943 3930 3930 3917 3917 3904 3891 3891 3879 3879 3866 3866 3866 3866 3879 3879 3917 3930 3983 4038 4079 4136 4180 4225 4240 4240 4225 4225 4225 4271 4286 4318 4349 4382 4398 4447 4533 4603 4658 4732 4790 4809 4829 4829 4829 4809 4790 4732 4676 4639 4585 4498 4414 4382 4333 4255 4136 0 3943 3917 3891 3879 3853 3829 3816 3816 3816 3829 3841 3853 3866 3866 3879 3891 3891 3891 3891 3891 3891 3891 3891 3891 3891 3891 3891 3891 3891 3879 3879 3866 3866 3853 3841 3829 3816 3816 3804 3804 3816 3841 3853 3866 3879 3891 3904 3917 3917 3904 3917 3917 3917 3917 3917 3917 3904 3891 3879 3866 3866 3841 3816 3792 3768 3756 3732 3732 3732 3720 3720 3720 3720 3732 3756 3756 3756 3768 3768 3792 3792 3804 3816 3829 3866 3879 3904 3930 3970 4010 4093 4151 4151 4151 4079 3957 3891 3829 3685 3553 3490 3351 3268 3223 3197 3163 3105 3073 3026 3003 2980 2965 2950 2914 2837 2777 2738 2689 2612 2561 2544 2528 2512 2496 2475 2459 2454 2480 2517 2544 2561 2594 2652 2713 2745 2764 2777 2790 2810 2810 2797 2797 2790 2784 2771 2758 2758 2751 2738 2732 2726 0 0 0 0 0 0 2005 1992 1933 1899 1878 1843 1812 1795 1776 1774 1774 1768 1776 1784 1787 1792 1798 1801 1803 1803 1803 1803 1801 1803 1803 1803 1803 1806 1809 1809 1809 1809 1809 1809 1809 1806 1806 1806 1803 1803 1803 1803 1803 1803 1803 1801 1801 1801 1801 1798 1798 1798 1792 1792 1790 1787 1782 1774 1768 1763 1758 1755 1750 1742 1740 1737 1737 1732 1732 1727 1725 1722 1719 1719 1717 1715 1712 1705 1702 1695 1688 1685 1678 1671 1664 1664 1662 1662 1662 1659 1657 1657 1657 1655 1652 1650 1650 1650 1648 1648 1643 1643 1641 1641 1641 1641 1641 1639 1639 1641 1641 1641 1639 1636 1636 1632 1632 1629 1625 1621 1618 1614 1614 0 0 0 0 0 0 0 0 0 0 0 0 0 0 0 0 0 0 0 0 0 0 0 0 0 0 0 0 0 0 0 0 0
0 0 0 0 0 0 0 0 0 0 0 0 0 0 0 0 0 0 0 0 0 0 0 0 0 0 0 0 0 0 0 0 0 0 0 0 0 0 2083 2075 2072 2072 2065 2057 2050 2040 2029 2022 2015 2005 1998 1995 1992 0 0 0 0 0 1712 1688 1683 1671 1662 1655 1650 1645 1643 1641 1641 1643 1643 1645 1648 1650 0 0 0 3853 3841 3841 3829 3829 3816 3816 3804 3792 0 0 0 0 0 0 0 0 0 0 0 0 2139 2128 2128 2132 2132 2124 2124 2124 2128 2128 2128 2128 2132 2132 2132 2132 2132 2135 2135 2135 2135 2135 2135 2135 2135 2135 2135 2132 2132 2132 2128 2128 2128 2124 2124 2124 2124 2120 2120 2120 2116 2116 2116 2113 2116 2113 2113 2113 2113 2113 2113 2113 2113 2113 2116 2116 2120 2120 2120 2120 2120 2120 2120 2116 2113 2113 2113 2109 2105 2105 2105 2105 2105 2105 2105 2109 2109 2113 2113 2116 2116 2116 2120 2120 2120 2120 2120 2120 2120 2120 2124 2124 2124 2124 2124 2124 2124 2128 2132 2135 2139 2139 2147 2155 2159 2167 2167 2179 2179 0 0 0 0 2539 2566 2612 2652 2652 2658 2670 2670 2676 2689 0 0 0 0 0 0 0 4271 4240 4225 4151 4122 4079 4051 4038 3997 3983 3983 3957 3943 3930 3930 3917 3891 3866 3816 3732 3651 3585 3542 3510 3479 3439 3390 3351 3342 3323 3390 3459 3510 3542 3596 3708 3816 3879 3904 3917 3917 3904 3904 3891 3891 3879 3879 3866 3866 3866 3853 3853 3853 3853 3853 3866 3866 3891 3930 3970 4010 4051 4122 4151 4225 4240 4240 4225 4225 4225 4255 4302 4318 4349 4382 4414 4464 4533 4639 4676 4770 4790 4809 4809 4829 4809 4790 4770 4713 4658 4603 4533 4464 4398 4349 4302 4180 4051 3970 3917 3879 3866 3829 3816 3804 3768 3756 3768 3768 3792 3804 3816 3829 3841 3853 3866 3866 3866 3866 3866 3879 3879 3879 3879 3879 3866 3866 3866 3853 3841 3829 3816 3816 3792 3768 3756 3732 3720 3720 3756 3768 3792 3804 3816 3829 3853 3866 3866 3866 3853 3853 3866 3866 3879 3879 3879 3866 3866 3866 3853 3841 3816 3792 3768 3756 3732 3720 3708 3708 3685 3685 3685 3708 3720 3720 3732 3756 3756 3768 3792 3792 3804 3816 3853 3879 3904 3930 3957 4010 4079 4136 4136 4122 4038 3943 3891 3829 3674 3553 3490 3370 3268 3223 3197 3155 3097 3065 3026 2995 2972 2958 2936 2885 2810 2758 2726 2670 2600 2561 2539 2522 2512 2491 2470 2454 2454 2475 2506 2533 2550 2566 2594 2658 2707 2732 2738 2738 2751 2751 2751 2751 2745 2738 2732 2732 2726 2707 2689 2652 2617 0 0 0 0 0 0 2040 2005 0 0 0 1834 1809 1792 1774 1768 1768 1766 1774 1782 1784 1790 1795 1798 1801 1801 1801 1798 1798 1798 1798 1801 1801 1801 1801 1801 1801 1801 1801 1803 1801 1801 1801 1801 1801 1801 1801 1801 1801 1801 1801 1798 1798 1798 1795 1792 1792 1787 1784 1782 1776 1774 1766 1758 1755 1747 1742 1740 1737 1732 1730 1730 1727 1727 1727 1725 1725 1719 1719 1717 1717 1715 1712 1705 1700 1692 1688 1683 1676 1669 1664 1662 1662 1662 1659 1659 1659 1657 1655 1655 1652 1650 1650 1650 1648 1648 1643 1643 1641 1641 1641 1641 1641 1639 1641 1641 1641 1641 1639 1639 1636 1636 1634 1629 1627 1625 1621 1618 1618 1614 1612 0 1605 0 0 0 0 0 0 0 0 0 0 0 0 0 0 0 0 0 0 0 0 0 0 0 0 0 0 0 0 0
0 0 0 0 0 0 0 0 0 0 0 0 0 0 0 0 0 0 0 0 0 0 0 0 0 0 0 0 0 0 0 0 0 0 0 0 0 0 2072 2065 2065 2057 2057 2047 2036 2026 2019 2012 2005 1998 1992 1982 1972 1952 0 0 0 0 1712 1692 1683 1676 1664 1655 1650 1645 1643 1641 1641 1643 1645 1648 1648 1650 0 0 0 0 3853 3841 3841 3829 3829 3816 3816 3804 0 0 0 0 0 0 0 0 0 0 0 0 2143 2132 2135 2132 2135 2128 2128 2128 2128 2128 2132 2132 2132 2132 2135 2135 2135 2139 2139 2139 2139 2139 2143 2143 2139 2139 2139 2135 2135 2132 2128 2128 2128 2124 2124 2124 2120 2120 2120 2116 2116 2116 2113 2113 2113 2113 2113 2113 2113 2113 2113 2113 2116 2116 2120 2120 2120 2120 2124 2124 2120 2120 2120 2120 2116 2116 2113 2109 2109 2105 2105 2105 2105 2105 2105 2105 2109 2109 2113 2113 2116 2116 2116 2116 2116 2120 2120 2120 2120 2120 2120 2120 2120 2120 2120 2124 2124 2124 2128 2128 2132 2132 2139 2143 2147 2155 2155 2167 0 0 0 0 0 0 2617 2658 2689 2670 2670 2670 2670 2676 2689 0 0 0 0 0 0 0 4151 4136 4122 4079 4038 4010 4010 3997 3983 3970 3957 3943 3930 3930 3917 3891 3879 3853 3792 3720 3640 3574 3542 3510 3479 3439 3390 3370 3342 3342 3380 3439 3490 3521 3563 3618 3720 3816 3866 3879 3879 3879 3866 3866 3866 3866 3853 3841 3841 3841 3829 3816 3816 3829 3829 3841 3853 3891 3917 3957 3997 4051 4122 4151 4225 4255 4240 4240 4240 4255 4271 4302 4333 4349 4398 4414 4481 4550 4639 4713 4732 4790 4809 4790 4809 4790 4770 4713 4658 4603 4533 4481 4414 4365 4318 4240 4122 3997 3930 3891 3866 3829 3804 3768 3756 3732 3720 3720 3720 3732 3732 3756 3768 3792 3804 3816 3816 3829 3829 3829 3841 3841 3841 3841 3841 3841 3829 3829 3804 3792 3768 3756 3720 3708 3685 3674 3651 3640 3651 3674 3708 3720 3732 3732 3768 3792 3804 3816 3804 3804 3804 3816 3841 3853 3866 3866 3866 3866 3866 3853 3841 3816 3792 3768 3732 3720 3708 3685 3685 3674 3651 3651 3674 3685 3685 3708 3708 3720 3720 3756 3768 3768 3804 3841 3866 3891 3917 3957 3997 4038 4093 4122 4079 4010 3930 3879 3816 3674 3553 3490 3370 3268 3223 3197 3155 3097 3049 3018 2987 2972 2950 2928 2858 2784 2751 0 2658 2589 2555 2539 2517 2506 2491 2470 2454 2439 2459 2480 2512 2533 2550 2561 2589 2635 2676 2689 2695 2701 2707 2707 2707 2695 2689 2676 2670 2652 2612 2589 0 0 0 0 0 0 0 0 2090 2029 1972 1902 1866 0 1803 1790 1768 1766 1766 1766 1768 1776 1782 1787 1790 1795 1798 1798 1798 1795 1792 1792 1792 1792 1795 1795 1795 1795 1798 1798 1798 1798 1798 1798 1801 1801 1801 1801 1801 1801 1801 1801 1798 1798 1795 1792 1790 1787 1787 1782 1774 1768 1766 1758 1755 1747 1742 1737 1732 1730 1727 1727 1725 1725 1725 1725 1725 1722 1719 1719 1717 1717 1717 1715 1710 1705 1700 1692 1688 1683 1676 1669 1664 1662 1662 1659 1659 1657 1657 1657 1655 1652 1652 1650 1650 1648 1648 1648 1643 1643 1641 1641 1641 1641 1641 1641 1641 1641 1641 1641 1641 1639 1639 1636 1634 1634 1632 1629 1625 1625 1621 1618 0 0 0 0 0 0 0 0 0 0 0 0 0 0 0 0 0 0 0 0 0 0 0 0 0 0 0 0 0 0 0 0
0 0 0 0 0 0 0 0 0 0 0 0 0 0 0 0 0 0 0 0 0 0 0 0 0 0 0 0 0 0 0 0 0 0 0 0 0 0 2061 2057 2050 2047 2040 2029 2022 2012 2009 2005 1995 1988 1972 1952 1939 1914 1878 0 0 0 1712 1692 1683 1671 1664 1657 1650 1645 1643 1641 1641 1643 1643 1648 1648 1652 0 0 0 0 0 3841 3841 3829 3829 3829 3816 3804 0 0 0 0 0 0 0 0 0 0 0 0 2135 2135 2135 2132 2132 2132 2132 2132 2132 2132 2132 2132 2135 2135 2135 2139 2139 2143 2143 2147 2147 2147 2147 2147 2147 2143 2143 2139 2135 2135 2132 2132 2128 2124 2124 2124 2120 2120 2120 2116 2113 2113 2113 2113 2113 2113 2113 2113 2113 2113 2116 2120 2120 2120 2124 2124 2124 2124 2124 2124 2124 2124 2124 2124 2120 2120 2116 2113 2109 2105 2105 2105 2105 2105 2105 2105 2109 2109 2113 2113 2113 2113 2113 2113 2113 2116 2116 2116 2116 2116 2120 2120 2120 2120 2120 2120 2120 2124 2124 2124 2124 2132 2132 2132 2139 2143 2147 2155 2159 0 0 0 2764 0 2707 2707 2701 2670 2670 2670 2670 2676 2689 0 0 0 0 0 0 0 4010 3997 3983 3970 3970 3957 3957 3957 3943 3943 3930 3930 3917 3917 3904 3879 3866 3829 3768 3708 3618 3574 3542 3510 3490 3449 3409 3380 3351 3342 3370 3419 3479 3510 3542 3574 3640 3720 3804 3829 3829 3829 3841 3841 3829 3829 3816 3816 3804 3804 3792 3792 3792 3792 3804 3816 3841 3879 3904 3930 3970 4010 4051 4122 4180 4225 4225 4225 4225 4240 4255 4302 4333 4365 4398 4431 4481 4550 4639 4676 4732 4770 4790 4770 4770 4770 4713 4658 4639 4550 4498 4447 4382 4349 4286 4180 4051 3943 3904 3866 3841 3804 3756 3732 3720 3685 3685 3674 3685 3685 3708 3708 3720 3732 3756 3768 3792 3792 3792 3804 3804 3804 3804 3804 3804 3792 3792 3768 3756 3732 3720 3685 3674 3651 3640 3618 3607 3607 3618 3618 3651 3674 3685 3685 3708 3720 3732 3756 3756 3732 3756 3768 3804 3816 3829 3841 3853 3866 3853 3853 3841 3816 3792 3768 3732 3720 3685 3674 3651 3640 3618 3618 3640 3640 3651 3651 3674 3685 3708 3720 3732 3756 3792 3829 3866 3891 3917 3943 3983 4010 4051 4079 4051 3983 3930 3879 3816 3674 3553 3500 3380 3277 3232 3197 3155 3097 3049 3010 2980 2965 2943 2900 2830 2764 2738 2707 2647 2589 2561 2539 2522 2506 2480 2470 2454 2439 2454 2470 2491 2512 2528 2539 2555 2566 0 2594 2600 2612 2612 2612 2612 2594 2589 2577 2566 2566 2550 0 0 0 0 0 0 0 2155 0 0 0 1952 1896 0 0 1803 1790 1776 1768 1766 1763 1766 1774 1776 1784 1790 1792 1792 1795 1795 1790 1790 1787 1790 1790 1790 1790 1790 1792 1792 1792 1795 1798 1798 1798 1798 1801 1798 1798 1798 1798 1798 1798 1798 1795 1790 1787 1784 1782 1776 1774 1766 1763 1758 1755 1742 1740 1735 1732 1730 1727 1725 1725 1722 1722 1722 1719 1719 1719 1719 1717 1717 1715 1715 1715 1710 1705 1700 1692 1688 1683 1676 1669 1662 1662 1659 1659 1659 1657 1655 1655 1652 1652 1650 1650 1648 1648 1648 1645 1645 1643 1643 1641 1641 1641 1641 1641 1641 1641 1641 1641 1641 1641 1639 1639 1636 1636 1634 1629 1629 1627 1621 1621 1621 1618 1614 0 0 0 0 0 0 0 0 0 0 0 0 0 0 0 0 0 0 0 0 0 0 0 0 0 0 0 0 0
0 0 0 0 0 0 0 0 0 0 0 0 0 0 0 0 0 0 0 0 0 0 0 0 0 0 0 0 0 0 0 0 0 0 0 0 0 0 2050 2040 2036 2036 2026 2019 2012 2005 2002 1995 1988 1972 1943 1924 1914 1896 0 0 0 0 1707 1688 1678 1669 1662 1652 1648 1645 1643 1641 1641 1643 1645 1648 1650 1652 0 0 0 0 0 3841 3841 3841 3829 3829 3816 0 0 0 0 0 0 0 0 0 0 0 0 0 0 2120 2120 2124 2124 2128 2128 2132 2132 2132 2135 2135 2135 2135 2143 2143 2143 2143 2147 2147 2155 2147 2147 2155 2155 2147 2147 2143 2139 2135 2135 2132 2128 2124 2124 2124 2120 2120 2120 2116 2113 2113 2113 2113 2113 2113 2113 2116 2116 2120 2120 2124 2124 2128 2128 2132 2132 2132 2135 2135 2135 2132 2132 2128 2124 2124 2120 2116 2113 2109 2109 2105 2105 2105 2105 2105 2105 2109 2109 2109 2109 2109 2109 2109 2109 2113 2113 2113 2113 2113 2113 2113 2113 2116 2116 2120 2120 2120 2120 2120 2124 2124 2124 2128 2135 2139 2139 0 0 0 0 0 2851 0 0 0 2707 2670 2670 2670 2670 2670 2670 2689 0 0 0 0 0 3917 0 3930 3930 3930 3917 3917 3930 3930 3930 3930 3917 3917 3917 3891 3891 3879 3853 3804 3756 3685 3618 3563 3542 3510 3500 3459 3419 3390 3370 3342 3370 3409 3449 3490 3521 3542 3574 3640 3708 3732 3756 3768 3768 3792 3792 3768 3768 3792 3768 3768 3756 3756 3756 3768 3792 3792 3816 3866 3891 3917 3943 3970 3997 4051 4122 4151 4151 4151 4151 4180 4225 4271 4318 4349 4382 4431 4481 4550 4603 4676 4713 4732 4732 4732 4732 4732 4676 4658 4585 4533 4464 4398 4349 4302 4195 4093 3970 3917 3879 3841 3804 3756 3708 3685 3651 3640 3640 3618 3640 3640 3651 3651 3674 3685 3720 3720 3732 3732 3756 3756 3756 3756 3756 3756 3732 3720 3720 3708 3685 3674 3651 3640 3618 3607 3596 3596 3596 3596 3585 3596 3607 3640 3651 3651 3685 3708 3720 3720 3720 3720 3732 3732 3768 3804 3816 3829 3829 3841 3841 3829 3816 3804 3768 3756 3708 3685 3651 3618 3607 3607 3596 3585 3596 3596 3607 3607 3618 3640 3651 3674 3685 3708 3756 3804 3853 3879 3904 3930 3957 3983 4038 4038 4010 3970 3917 3879 3804 3651 3553 3490 3380 3277 3232 3197 3155 3097 3049 3010 2980 2958 2936 2878 2810 2758 2732 2695 2629 2577 2555 2539 2522 2506 2480 2470 2454 2439 2439 2454 2459 2480 2491 2512 2528 2539 2550 2550 2550 2550 0 2550 2550 2544 2539 2533 2522 2512 2491 2459 2424 2404 2385 0 2253 0 0 0 0 0 0 0 0 0 1801 1787 1768 1766 1766 1763 1766 1774 1776 1782 1787 1790 1792 1792 1792 1787 1787 1784 1784 1784 1784 1787 1787 1787 1787 1790 1790 1798 1798 1798 1803 1803 1803 1803 1803 1803 1803 1803 1803 1801 1798 1798 1798 1798 1798 1795 1790 1784 1782 1776 1766 1758 1750 1742 1737 1732 1730 1727 1725 1725 1722 1722 1719 1719 1719 1717 1715 1715 1715 1715 1710 1705 1700 1692 1688 1683 1676 1669 1662 1659 1659 1657 1657 1657 1655 1652 1650 1650 1650 1650 1648 1648 1648 1645 1645 1643 1643 1643 1641 1641 1641 1641 1641 1641 1641 1641 1641 1641 1641 1639 1639 1639 1636 1634 1632 1627 1627 1625 1621 1618 1618 1614 0 0 0 0 0 0 0 0 0 0 0 0 0 0 0 0 0 0 0 0 0 0 0 0 0 0 0 0
0 0 0 0 0 0 0 0 0 0 0 0 0 0 0 0 0 0 0 0 0 0 0 0 0 0 0 0 0 0 0 0 0 0 0 0 0 2029 2029 2026 2022 2015 2012 2009 2002 1998 1992 1985 1965 1943 1917 1905 1896 1875 1817 0 0 0 1702 1683 1669 1662 1655 1650 1648 1643 1641 1641 1641 1645 1645 1648 1650 1655 1662 0 0 0 0 0 0 0 0 0 0 0 0 0 0 0 0 0 0 0 0 0 0 0 2094 2105 2109 2116 2120 2124 2124 2128 2132 2132 2135 2135 2135 2143 2143 2143 2147 2147 2155 2155 2155 2155 2159 2159 2159 2155 2147 2143 2143 2139 2135 2135 2132 2124 2124 2124 2124 2128 2143 2143 2124 2120 2124 2120 2124 2120 2120 2120 2120 2120 2124 2128 2132 2135 2139 2143 2147 2147 2147 2147 2147 2143 2143 2139 2135 2132 2128 2124 2120 2113 2109 2109 2105 2105 2105 2105 2105 2109 2109 2109 2109 2109 2109 2109 2109 2109 2109 2109 2109 2109 2113 2113 2113 2116 2116 2116 2116 2120 2120 2120 2120 2124 2124 2124 2132 2132 0 0 0 0 0 0 0 0 0 0 2720 2670 2670 2670 2658 2670 2670 2676 2695 0 0 0 0 0 3891 3891 3904 3904 3904 3917 3917 3917 3917 3917 3917 3904 3891 3891 3879 3866 3829 3792 3732 3674 3607 3563 3542 3521 3500 3469 3439 3409 3370 3351 3351 3380 3419 3459 3490 3510 3542 3563 3607 3640 3674 3685 3708 3720 3720 3720 3720 3720 3720 3720 3708 3708 3708 3720 3732 3756 3768 3829 3866 3891 3917 3930 3943 3983 4038 4079 4051 4051 4079 4122 4151 4225 4271 4318 4349 4398 4464 4533 4603 4658 4676 4713 4713 4713 4676 4676 4658 4603 4533 4464 4398 4365 4318 4225 4079 3970 3917 3879 3829 3792 3732 3685 3651 3618 3607 3596 3585 3585 3585 3596 3596 3607 3618 3640 3651 3674 3674 3685 3685 3685 3685 3685 3685 3685 3685 3674 3651 3651 3640 3618 3607 3596 3585 3574 3574 3563 3563 3563 3563 3563 3585 3596 3607 3618 3651 3674 3685 3685 3685 3708 3708 3720 3732 3768 3792 3792 3792 3792 3792 3792 3768 3756 3708 3685 3651 3640 3607 3596 3585 3574 3563 3563 3563 3563 3563 3574 3585 3585 3596 3607 3618 3640 3685 3732 3804 3853 3879 3904 3930 3957 3983 3983 3970 3930 3891 3866 3768 3640 3542 3479 3380 3268 3223 3197 3146 3089 3041 3003 2980 2958 2928 2864 2790 2751 2726 2689 2629 2577 2550 2539 2522 2506 2480 2459 2444 2429 2429 2429 2439 2444 2454 2459 2475 2491 2496 2496 2496 2491 2491 2491 2480 2475 2459 2444 2429 2414 2404 2390 2380 2361 2333 2266 2232 2183 2124 2101 2015 0 0 0 0 0 1798 1784 1768 1763 1766 1763 1763 1768 1774 1776 1784 1787 1790 1790 1790 1782 1782 1776 1776 1776 1776 1782 1790 1801 1801 1809 1846 1854 1857 1857 1872 1872 1866 1866 1857 1851 1837 1834 1828 1820 1814 1812 1809 1809 1809 1809 1803 1801 1798 1798 1790 1784 1774 1766 1755 1750 1742 1737 1730 1727 1725 1725 1719 1719 1719 1717 1715 1715 1715 1715 1710 1705 1700 1692 1688 1683 1676 1664 1659 1659 1657 1657 1655 1655 1652 1652 1650 1650 1650 1648 1648 1648 1645 1645 1643 1643 1643 1643 1643 1641 1641 1641 1643 1641 1643 1643 1641 1641 1641 1641 1639 1639 1639 1636 1634 1632 1629 1625 1625 1621 1618 1614 1612 0 0 0 0 0 0 0 0 0 0 0 0 0 0 0 0 0 0 0 0 0 0 0 0 0 0 0
0 0 0 0 0 0 0 0 0 0 0 0 0 0 0 0 0 0 0 0 0 0 0 0 0 0 0 0 0 0 0 0 0 0 0 0 0 2009 2009 2005 2005 2002 1998 1995 1992 1985 1978 1962 1939 1914 1902 1893 1881 1843 1806 1776 0 1717 1692 1671 1662 1655 1650 1648 1645 1643 1641 1641 1641 1643 1645 1648 1650 1655 1662 0 0 0 0 0 0 0 0 0 0 0 0 0 0 0 0 0 0 0 0 0 0 0 2050 2075 2094 2105 2113 2116 2120 2124 2128 2132 2132 2132 2139 2143 2143 2143 2147 2147 2155 2159 2167 2167 2167 2167 2167 2159 2159 2155 0 0 0 0 0 0 0 0 0 2132 2171 0 2171 2183 2195 2199 2207 2211 2215 2211 2207 2195 2195 2187 2187 2183 2179 2179 2171 2167 2167 2167 2167 2159 2159 2155 2147 2143 2135 2128 2120 2116 2113 2109 2105 2105 2101 2101 2105 2105 2109 2109 2109 2109 2109 2109 2109 2109 2109 2109 2109 2109 2109 2113 2113 2113 2113 2113 2116 2116 2120 2120 2120 2120 2124 2124 0 0 0 0 0 0 0 0 2980 2928 0 2758 2732 2689 2670 2670 2670 2658 2670 2676 2689 0 0 0 0 3756 3866 3879 3879 3879 3891 3891 3891 3891 3891 3891 3891 3891 3891 3879 3866 3853 3816 3768 3720 3674 3607 3563 3542 3521 3500 3479 3459 3419 3380 3351 3351 3370 3390 3419 3459 3490 3510 3531 3553 3585 3596 3618 3640 3651 3651 3651 3674 3674 3651 3651 3674 3651 3651 3674 3685 3685 3720 3768 3829 3866 3879 3891 3904 3930 3943 3970 3970 3957 3970 3997 4010 4079 4136 4225 4286 4333 4382 4431 4498 4585 4639 4676 4676 4676 4676 4658 4639 4550 4481 4414 4365 4318 4195 4079 3957 3904 3866 3829 3756 3708 3651 3618 3596 3574 3574 3553 3553 3553 3553 3553 3563 3574 3574 3585 3585 3596 3607 3607 3607 3618 3618 3618 3618 3618 3618 3607 3607 3596 3596 3585 3574 3563 3553 3553 3553 3553 3553 3542 3553 3553 3563 3574 3585 3607 3618 3640 3651 3674 3674 3674 3685 3685 3708 3732 3732 3732 3732 3732 3732 3720 3708 3685 3651 3640 3607 3596 3574 3563 3553 3553 3542 3542 3542 3542 3542 3542 3553 3553 3553 3563 3574 3585 3618 3674 3732 3816 3853 3879 3891 3917 3930 3930 3930 3917 3879 3841 3756 3618 3542 3479 3370 3268 3215 3189 3146 3073 3026 2987 2972 2950 2914 2851 2784 2751 2726 0 2617 2577 2550 2539 2522 2506 2480 2459 2444 2429 2424 2419 2419 2419 2419 2419 2419 2424 2424 2419 2414 2414 2409 2409 2400 2400 2395 2385 2380 2371 2361 2333 2320 2288 2262 2236 2195 2155 2113 2090 0 0 0 0 0 0 1798 1784 1774 1766 1763 1758 1763 1766 1768 1774 1776 1784 1784 1784 1784 1776 1774 1774 1774 1774 1774 1774 1774 1776 1776 1809 1846 1902 1905 1905 1905 1905 1905 1905 1902 1896 1890 1881 1875 1857 1846 1837 1826 1826 1828 1823 1817 1812 1812 1806 1803 1801 1795 1787 1782 1774 1763 1755 1747 1737 1732 1727 1725 1722 1719 1717 1715 1715 1715 1715 1710 1705 1700 1692 1688 1683 1671 1664 1659 1657 1657 1655 1652 1652 1652 1650 1650 1650 1648 1648 1648 1648 1645 1643 1643 1643 1643 1643 1643 1641 1641 1643 1643 1643 1643 1643 1643 1641 1641 1641 1641 1639 1639 1639 1636 1632 1629 1627 1627 1621 1618 1614 1612 1612 1610 0 0 0 0 0 0 0 0 0 0 0 0 0 0 0 0 0 0 0 0 0 0 0 0 0
0 0 0 0 0 0 0 0 0 0 0 0 0 0 0 0 0 0 0 0 0 0 0 0 0 0 0 0 0 0 0 0 0 0 0 0 0 1992 1992 1992 1992 1988 1985 1978 1965 1955 1943 1930 1911 1899 1890 1875 1846 1814 1795 1755 0 1710 1683 1662 1655 1650 1648 1645 1643 1641 1641 1641 1641 1643 1648 1648 1650 1655 1669 1685 0 0 0 0 0 0 0 0 0 0 0 0 0 0 0 0 0 0 0 0 0 0 2015 2040 2065 2090 2105 2109 2113 2120 2124 2128 2132 2132 2135 2139 2143 2143 2147 2155 2155 2167 2171 2171 2171 2171 0 0 0 0 0 0 0 0 0 0 0 0 0 0 0 0 0 2245 2249 2253 2266 2275 2279 2271 2266 2253 2249 2245 2241 2232 2232 2220 2211 2195 2183 2179 2179 2179 2171 2167 2159 2147 2139 2132 2124 2116 2113 2109 2105 2105 2101 2101 2105 2105 2105 2109 2109 2109 2109 2105 2109 2109 2109 2109 2109 2109 2109 2109 2109 2113 2113 2113 2113 2113 2120 2120 2120 2120 2124 0 0 0 0 0 0 0 3232 3206 3049 0 0 2784 2738 2701 2670 2670 2670 2670 2670 2670 2676 0 0 0 0 3618 3792 3853 3866 3866 3866 3866 3879 3879 3879 3879 3879 3879 3866 3866 3853 3816 3792 3732 3708 3651 3596 3563 3542 3521 3510 3490 3459 3439 3390 3370 3351 3370 3380 3409 3439 3459 3490 3510 3531 3553 3553 3574 3585 3607 3607 3618 3618 3618 3607 3618 3607 3607 3607 3618 3640 3640 3674 3720 3768 3804 3829 3866 3866 3891 3904 3917 3917 3904 3917 3917 3930 3957 3970 4051 4136 4240 4318 4349 4398 4464 4550 4658 4658 4658 4639 4639 4585 4498 4431 4382 4333 4240 4122 3970 3917 3866 3816 3756 3685 3640 3596 3574 3553 3542 3542 3542 3531 3531 3531 3531 3542 3542 3542 3553 3553 3553 3553 3553 3563 3563 3563 3574 3574 3574 3585 3574 3563 3563 3553 3553 3553 3553 3542 3542 3531 3542 3531 3531 3542 3542 3553 3553 3563 3585 3596 3607 3640 3651 3651 3651 3651 3674 3685 3708 3685 3685 3685 3674 3651 3651 3618 3607 3596 3585 3563 3553 3542 3542 3531 3521 3521 3521 3521 3521 3521 3521 3521 3521 3521 3542 3542 3553 3574 3607 3674 3732 3804 3853 3879 3891 3904 3917 3917 3891 3866 3816 3720 3596 3521 3469 3351 3250 3215 3180 3121 3065 3010 2980 2958 2943 2900 2837 2771 2745 2726 2676 2629 2583 2561 2539 2522 2506 2480 2459 2444 2424 2419 2414 2409 2404 2400 2400 2395 2395 2390 2385 2380 2380 2376 2376 2366 2361 2352 2347 2324 2315 2302 2279 2271 2253 2245 2220 0 0 0 0 0 0 1905 0 1820 1803 1795 1782 1768 1766 1763 1758 1758 1763 1763 1766 1774 1776 1782 1776 1776 1768 1774 1768 1768 1768 1768 1792 1792 1768 1843 1890 1917 1955 1962 1965 1965 1965 1962 1952 1949 1933 1917 1908 1902 1893 1887 1881 1866 1863 1857 1857 1851 1843 1828 1826 1817 1812 1809 1803 1801 1795 1787 1776 1766 1758 1742 1735 1730 1725 1722 1719 1717 1715 1715 1715 1712 1707 1700 1695 1688 1683 1671 1664 1659 1657 1655 1655 1652 1650 1650 1650 1650 1648 1648 1648 1648 1645 1643 1643 1643 1643 1643 1643 1643 1641 1643 1643 1643 1643 1643 1643 1643 1643 1643 1641 1641 1641 1639 1639 1636 1634 1632 1627 1627 1621 1618 1614 1612 1610 0 0 0 0 0 0 0 0 0 0 0 0 0 0 0 0 0 0 0 0 0 0 0 0 0 0
0 0 0 0 0 0 0 0 0 0 0 0 0 0 0 0 0 0 0 0 0 0 0 0 0 0 0 0 0 0 0 0 0 0 0 0 0 0 1949 1949 1952 1952 1949 1943 1933 1920 1914 1902 1893 1887 1863 1843 1817 1801 1768 0 1717 1695 1671 1652 1648 1645 1645 1643 1641 1641 1641 1641 1641 1645 1648 1650 1655 1664 1683 1705 1719 0 0 0 1787 0 0 1798 0 0 0 0 0 0 0 0 0 0 0 1939 1965 1992 1998 2009 2029 2057 2083 2101 2105 2113 2116 2124 2124 2128 2135 2139 2143 2143 2155 2155 2159 2167 2179 2179 2183 0 0 0 0 3490 3490 3469 3419 3370 3286 0 3189 0 0 0 0 0 0 0 0 0 2395 2400 2385 2380 2376 2352 2338 2324 2306 2279 2262 2249 2241 2232 2224 2207 2199 2187 2183 2179 2167 2159 2147 2135 2124 2120 2113 2109 2105 2105 2101 2101 2101 2105 2105 2105 2105 2105 2105 2109 2105 2105 2105 2105 2109 2109 2109 2109 2113 2113 2113 2113 2113 2116 2120 2120 2120 0 0 0 3342 3314 3295 3277 0 3241 3241 3223 3121 0 0 2817 2751 2707 2670 2670 2670 2658 2658 2670 2676 0 0 0 0 3531 3651 3792 3829 3829 3829 3829 3841 3841 3853 3853 3866 3853 3853 3841 3829 3792 3756 3720 3674 3640 3596 3563 3542 3521 3510 3490 3469 3439 3409 3380 3351 3351 3370 3380 3390 3439 3459 3490 3510 3521 3542 3553 3563 3574 3585 3585 3596 3585 3574 3585 3574 3574 3585 3585 3596 3607 3618 3674 3708 3732 3768 3804 3816 3841 3866 3866 3866 3866 3866 3866 3879 3891 3917 3930 3983 4079 4225 4302 4365 4431 4498 4639 4639 4639 4603 4585 4550 4481 4414 4365 4286 0 0 3930 3879 3804 3732 3674 3618 3574 3553 3542 3531 3521 3521 3510 3510 3510 3510 3510 3510 3521 3521 3521 3521 3521 3531 3531 3542 3542 3542 3542 3542 3553 3553 3553 3542 3542 3542 3542 3542 3531 3521 3521 3521 3521 3521 3521 3521 3531 3542 3542 3553 3563 3574 3596 3607 3618 3618 3640 3640 3651 3651 3651 3651 3640 3618 3607 3607 3585 3574 3563 3553 3553 3542 3531 3521 3510 3510 3510 3510 3500 3510 3500 3500 3500 3500 3500 3500 3510 3510 3521 3542 3553 3607 3674 3732 3792 3829 3866 3879 3879 3891 3866 3841 3768 3674 3553 3510 3449 3323 3241 3206 3163 3097 3041 2995 2972 2950 2921 2878 2817 2771 2745 2720 2676 2629 2583 2561 2539 2522 2506 2480 2459 2439 2424 2414 2409 2404 2400 2400 2395 2390 2385 2380 2376 2371 2361 2352 2338 2324 2315 2302 2293 2288 2275 2271 2258 2253 0 0 2211 2159 0 0 2050 1998 0 1887 1854 1820 1801 1792 1782 1774 1766 1763 1758 1758 0 0 0 0 0 0 0 0 0 0 0 0 0 0 0 0 0 0 0 0 0 0 0 0 1998 0 0 1992 0 0 0 1939 1917 1905 1896 1893 1890 1887 1881 1875 1866 1857 1851 1843 1834 1823 1814 1812 1806 1801 1798 1790 1776 1766 1750 1737 1730 1725 1719 1717 1717 1715 1715 1712 1707 1702 1695 1688 1683 1671 1664 1659 1657 1655 1652 1650 1650 1650 1650 1648 1648 1648 1648 1645 1645 1643 1643 1643 1643 1643 1643 1643 1641 1643 1643 1643 1643 1643 1643 1643 1643 1641 1641 1641 1641 1639 1639 1636 1634 1632 1629 1627 1625 1618 1614 1612 1610 0 0 0 0 0 0 0 0 0 0 0 0 0 0 0 0 0 0 0 0 0 0 0 0 0 0
0 0 0 0 0 0 0 0 0 0 0 0 0 0 0 0 0 0 0 0 0 0 0 0 0 0 0 0 0 0 0 0 0 0 0 0 0 0 1905 1908 1911 1917 1911 1908 1905 1902 1896 1890 1878 1857 1828 1814 1801 1776 1740 1722 1707 1683 1659 1650 1645 1643 1641 1639 1639 1639 1639 1639 1643 1643 1648 1650 1659 1676 1695 1715 1725 0 0 1784 1792 1798 1798 1803 1798 1803 0 0 0 0 0 0 1893 1896 1905 1920 1949 1975 1988 1998 2009 2029 2057 2075 2094 2105 2109 2116 2120 2124 2132 2135 2143 2147 2155 2155 2167 2171 2179 0 0 0 0 3419 3419 3419 3409 3380 3314 3250 3215 3180 0 0 0 0 0 2851 2797 2751 2589 2561 2544 0 0 0 0 0 0 2395 2385 2376 2357 2320 2288 2262 2249 2236 2232 2215 2199 2187 2179 2167 2147 2139 2128 2120 2113 2109 2105 2101 2098 2101 2098 2101 2105 2105 2105 2105 2105 2105 2105 2105 2105 2105 2105 2105 2109 2109 2109 2113 2113 2113 2113 2116 2120 0 0 3409 3390 3370 3351 3323 3295 3277 3259 3250 3241 3223 3155 0 0 0 2771 2726 2695 2676 2670 2658 2658 2670 2670 2732 0 0 0 0 3563 3685 3768 3768 3792 3792 3792 3792 3804 3816 3816 3816 3816 3804 3792 3768 3732 3708 3674 3618 3596 3563 3542 3521 3510 3500 3469 3449 3409 3380 3351 3351 3351 3351 3370 3390 3419 3459 3479 3510 3521 3542 3542 3553 3563 3563 3563 3563 3553 3553 3553 3553 3553 3563 3574 3585 3596 3618 3651 3674 3685 3708 3732 3756 3768 3792 3792 3768 3792 3792 3792 3816 3853 3879 0 3943 4051 0 4318 0 4447 4585 0 0 4550 4550 4533 4464 4398 0 0 4093 3957 3891 3829 3720 3640 3596 3563 3542 3531 3510 3510 3500 3500 3490 3479 3479 3479 3490 3490 3500 3500 3500 3500 3500 3510 3510 3510 3510 3510 3521 3521 3521 3521 3521 3521 3521 3521 3521 3521 3521 3510 3510 3510 3510 3510 3510 3521 3521 3521 3542 3542 3553 3563 3585 3596 3607 3618 3618 3618 3640 3640 3640 3607 3607 3585 3574 3563 3553 3542 3542 3531 3521 3510 3510 3500 3500 3490 3490 3479 3469 3479 3469 3469 3469 3469 3469 3479 3490 3500 3510 3521 3542 3563 3607 3674 3732 3792 3829 3841 3866 3866 3841 3804 3720 3618 3542 3500 3409 3295 3232 3197 3155 3073 3018 2980 2958 2943 2907 2858 2810 2771 2745 2726 2689 2635 2589 2561 2544 2522 2506 2480 2459 2439 2424 2414 2404 2400 2400 2395 2385 2380 2380 2376 2361 2352 2338 2324 2306 2293 2279 2271 2262 2253 2253 2249 2241 2236 2228 0 2183 0 2116 0 2036 1995 1952 1902 1866 1823 1803 1795 1782 1774 1766 1763 1758 1755 0 0 0 0 2262 2258 2253 2245 2241 2236 2236 2232 2232 2228 2224 2207 2171 2155 2124 2101 2105 2094 2057 2050 2047 2040 2029 2022 2009 2002 1995 0 0 1949 1924 1911 1905 1902 1896 1890 1887 1881 1875 1866 1863 1846 1837 1828 1820 1812 1809 1801 1795 1784 1766 1750 1737 1727 1725 1719 1717 1717 1715 1712 1710 1702 1695 1688 1683 1676 1664 1659 1657 1655 1652 1650 1650 1650 1648 1648 1648 1648 1645 1645 1643 1643 1643 1643 1643 1643 1643 1643 1641 1643 1643 1643 1643 1643 1643 1643 1643 1641 1641 1641 1639 1639 1639 1636 1634 1632 1629 1627 1625 1618 1614 1612 1605 1603 1603 0 0 0 0 0 0 0 0 0 0 0 0 0 0 0 0 0 0 0 0 0 0 0 0
0 0 0 0 0 0 0 0 0 0 0 0 0 0 0 0 0 0 0 0 0 0 0 0 0 0 0 0 0 0 0 0 0 0 0 0 0 0 1890 1893 1896 1896 1896 1893 1893 1890 1881 1866 1851 1826 1809 1801 1782 1747 1725 1712 0 1664 1650 1643 1641 1639 1639 1636 1634 1636 1636 1639 1641 1643 1645 1652 1664 1685 1707 1719 1735 0 1776 1790 1795 1798 1801 1803 1798 0 1809 0 0 1866 1881 1884 1890 1893 1899 1908 1924 1943 1965 1982 1995 2009 2026 2050 2072 2094 2105 2109 2116 2120 2128 2135 2139 2147 2155 2159 2167 2171 0 0 0 3351 3351 3351 3323 3314 3295 3259 3232 3206 3163 3097 0 0 0 0 2864 2851 2830 2797 2707 2689 2629 2594 2577 2561 2550 2533 2512 2491 2459 2429 2404 2390 2376 2357 2320 2279 2253 2245 2232 2215 2199 2171 2155 2139 2128 2120 2113 2105 2105 2101 2098 2098 2098 2098 2098 2101 2105 2105 2105 2105 2105 2101 2105 2105 2105 2105 2105 2109 2109 2113 0 0 0 0 0 3439 3419 3409 3390 3380 3351 3323 3314 3286 3268 3250 3241 3232 3180 3073 0 0 2797 2738 2707 2689 2676 2658 2652 2658 2670 2732 2837 0 0 0 3510 3596 3685 3685 3708 3708 3720 3720 3732 3756 3768 3768 3768 3756 3732 3720 3685 3674 3640 3607 3574 3553 3542 3521 3510 3500 3469 3449 3409 3380 3351 3342 3342 3342 3342 3370 3390 3419 3449 3490 3510 3521 3521 3542 3542 3542 3542 3542 3542 3542 3542 3542 3542 3553 3553 3563 3574 3596 3607 3607 3607 3618 3640 3651 3651 3674 3651 3640 3651 3651 3674 3685 3732 3768 3829 3879 3930 0 0 0 0 0 0 0 0 0 0 0 0 0 0 4093 3930 3879 3768 3640 3574 3553 3531 3521 3510 3500 3479 3469 3469 3459 3449 3439 3439 3449 3459 3459 3459 3459 3469 3469 3469 3479 3490 3490 3490 3500 3500 3500 3510 3510 3510 3510 3510 3510 3510 3500 3500 3500 3500 3500 3500 3500 3510 3510 3521 3521 3542 3542 3553 3563 3585 3596 3596 3596 3607 3607 3607 3596 3585 3563 3553 3542 3531 3521 3510 3510 3500 3500 3490 3469 3459 3449 3449 3439 3439 3419 3439 3419 3419 3409 3409 3419 3439 3439 3459 3479 3500 3521 3542 3574 3618 3674 3732 3768 3804 3829 3829 3804 3768 3685 3585 3521 3479 3380 3277 3223 3189 3121 3065 3003 2972 2950 2928 2885 2851 2797 2771 2745 2726 2689 2635 2589 2561 2544 2522 2506 2480 2459 2439 2424 2414 2404 2400 2395 2390 2385 2380 2376 2361 2352 2333 2320 2302 2279 2266 2253 2249 2249 2241 2236 2232 2224 2215 2195 2171 2139 0 2094 2040 2005 1972 1917 1893 1863 1823 1803 1798 1784 1774 1766 1766 1758 1755 0 0 0 2266 2262 2253 2253 2241 2236 2232 2232 2224 2220 2215 2211 2211 2183 2155 2139 2132 2120 2113 2105 2105 2101 2094 2090 2083 2065 2047 2026 2009 0 0 1975 1952 1939 1924 1914 1905 1902 1899 1896 1893 1890 1881 1872 1863 1851 1834 1823 1812 1803 1798 1782 1763 1747 1735 1727 1722 1719 1717 1715 1715 1710 1705 1700 1692 1685 1676 1664 1659 1657 1652 1650 1650 1650 1648 1648 1648 1645 1645 1645 1643 1643 1643 1643 1643 1643 1641 1643 1641 1641 1643 1643 1643 1643 1643 1643 1643 1643 1641 1641 1639 1639 1639 1636 1634 1632 1632 1629 1627 1625 1618 1614 1612 1605 1603 1599 1597 0 0 0 0 0 0 0 0 0 0 0 0 0 0 0 0 0 0 0 0 0 0 0
0 0 0 0 0 0 0 0 0 0 0 0 0 0 0 0 0 0 0 0 0 0 0 0 0 0 0 0 0 0 0 0 0 0 0 0 0 1854 1863 1866 1875 1881 1881 1878 1878 1872 1857 1843 1823 1809 1798 1782 1750 1727 1715 0 1664 1650 1643 1641 1636 1634 1632 1632 1632 1634 1634 1636 1641 1643 1648 1655 1676 1700 0 1727 1742 0 1782 1792 1798 1801 1801 1803 1801 1803 0 1812 1834 1854 1866 1875 1884 1890 1893 1899 1908 1920 1943 1955 1982 1995 2009 2022 2050 2072 2090 2105 2113 2120 2124 2135 2147 2167 2187 2211 2232 0 0 3172 3189 3206 3223 3232 3232 3232 3223 3215 3197 3155 0 0 2980 2958 2928 2885 2858 2837 2830 2797 2758 2738 2713 2689 2658 2635 2594 2572 2561 2550 2544 2528 2506 0 0 0 2390 0 2347 2302 2262 2241 2224 2195 2159 2139 2128 2120 2113 2105 2105 2101 2094 2098 2094 2098 2098 2101 2101 2101 2105 2101 2101 2098 0 0 0 0 0 0 0 0 0 0 3439 3439 3439 3419 3419 3409 3390 3380 3351 3342 3314 3286 3268 3250 3241 3232 3197 3121 0 0 2817 2745 2713 2689 2676 2658 2658 2658 2658 2720 2797 0 0 0 3449 3542 3607 3618 3640 3651 3651 3651 3674 3685 3708 3720 3720 3708 3685 3674 3651 3640 3607 3585 3553 3542 3531 3521 3500 3490 3459 3439 3409 3380 3351 3323 3323 3323 3323 3342 3351 3390 3419 3459 3490 3500 3510 3521 3521 3521 3521 3521 3521 3510 3521 3521 3531 3542 3542 3553 3553 3553 3553 3553 3553 3563 3553 3563 3563 3553 3553 3553 3553 3553 3553 3563 3585 3607 3640 3720 3816 0 0 0 0 0 0 0 0 0 0 0 0 0 0 0 3930 3866 3720 3574 3531 3510 3500 3490 3469 3449 3449 3439 3409 3409 3390 3390 3390 3390 3409 3409 3409 3409 3409 3419 3419 3439 3439 3449 3449 3459 3469 3479 3479 3479 3490 3490 3490 3490 3490 3490 3479 3479 3479 3490 3490 3490 3500 3510 3510 3510 3521 3531 3542 3553 3563 3574 3574 3585 3585 3585 3574 3553 3553 3542 3521 3510 3500 3490 3469 3469 3459 3449 3439 3419 3409 3390 3380 3380 3370 3370 3370 3370 3370 3370 3351 3370 3380 3390 3419 3449 3479 3500 3521 3553 3574 3618 3674 3720 3732 3768 3792 3756 3708 3640 3553 3500 3439 3342 3259 3206 3163 3097 3026 2987 2965 2943 2914 2878 2830 2790 2764 2738 2726 2689 2647 2594 2566 2544 2528 2506 2480 2459 2439 2424 2414 2404 2400 2395 2385 2380 2376 2366 2357 2338 2320 2293 2275 2262 2253 2245 2241 2236 2228 2224 2211 2187 2179 2155 2132 2113 2090 2057 2012 1992 1943 1905 1890 1863 1826 1806 1798 1787 1776 1774 1763 1763 1763 0 0 2262 2258 2253 2249 2241 2236 2232 2232 2224 2220 2211 2207 2207 2187 2171 2167 2167 2159 2155 2143 2139 2132 2124 2124 2120 2113 2109 2094 2072 2047 2022 2005 1995 1985 1972 1962 1949 1939 1930 1920 1914 1905 1902 1896 1893 1890 1881 1866 1851 1834 1817 1803 1795 1776 1758 1740 1730 1725 1719 1717 1717 1715 1712 1705 1700 1692 1685 1678 1669 1659 1657 1652 1650 1650 1648 1648 1648 1645 1643 1643 1643 1643 1643 1643 1641 1641 1641 1641 1641 1641 1641 1643 1643 1643 1643 1643 1643 1643 1643 1641 1641 1639 1639 1636 1634 1632 1629 1629 1627 1625 1621 1614 1614 1610 1605 1603 1599 1599 1592 0 0 0 0 0 0 0 0 0 0 0 0 0 0 0 0 0 0 0 0 0 0
0 0 0 0 0 0 0 0 0 0 0 0 0 0 0 0 0 0 0 0 0 0 0 0 0 0 0 0 0 0 0 0 0 0 0 1812 1817 1826 1837 1846 1846 1854 1857 1854 1854 1846 1828 1817 1809 1798 1776 1750 1727 1715 1695 0 1652 1643 1639 1634 1632 1629 1627 1627 1627 1629 1632 1636 1641 1645 1650 1662 1688 1710 1722 1732 1750 1768 1787 1795 1798 1801 1801 1803 1803 1806 1809 1814 1826 1843 1857 1872 1878 1884 1890 1896 1902 1914 1930 1949 1965 1985 1998 2009 2029 2057 2083 2098 2109 2113 2124 2139 2167 2187 2224 2241 2266 0 0 2995 3041 3105 3155 3180 3189 3189 3189 3163 0 0 0 2995 2958 2943 2914 2878 2851 2830 2810 2797 2784 2764 2751 2738 2726 2707 2689 2652 2629 2612 2583 2566 2561 2550 2539 0 0 0 0 0 2333 2271 2241 2207 2159 2135 2124 2116 2113 2105 2101 2098 2094 2098 2098 2094 2098 2101 2101 0 0 0 0 0 0 0 0 0 0 0 0 3439 3439 3419 3439 3419 3419 3419 3409 3390 3380 3370 3351 3323 3314 3277 3268 3259 3241 3232 3215 3155 0 0 0 2758 2720 2689 2670 2658 2658 2658 2670 2707 2758 2914 0 0 0 3479 3542 3553 3585 3596 3596 3607 3607 3618 3651 3651 3674 3651 3651 3640 3618 3607 3585 3553 3542 3531 3521 3510 3490 3469 3449 3409 3390 3370 3342 3323 3314 3314 3314 3314 3342 3370 3390 3419 3459 3479 3490 3500 3500 3500 3510 3500 3500 3500 3500 3510 3510 3521 3521 3531 3542 3542 3531 3542 3531 3531 3521 3531 3521 3521 3521 3521 3521 3510 3510 3510 3510 3510 3521 0 0 0 0 0 0 0 0 0 0 0 0 0 0 4349 0 0 0 0 3685 3553 3510 3500 3469 3449 3419 3409 3390 3390 3370 3351 3351 3351 3351 3351 3370 3370 3370 3370 3380 3380 3390 3390 3390 3409 3409 3419 3439 3439 3449 3449 3449 3459 3459 3459 3459 3459 3459 3459 3459 3459 3469 3469 3479 3500 3500 3510 3510 3521 3531 3542 3553 3563 3553 3553 3553 3563 3553 3542 3521 3510 3500 3479 3459 3439 3419 3409 3390 3380 3380 3370 3342 3323 3323 3323 3314 3314 3295 3314 3295 3295 3314 3314 3323 3351 3370 3390 3439 3469 3500 3521 3553 3585 3618 3651 3685 3708 3732 3685 3651 3585 3531 3479 3390 3295 3241 3206 3146 3073 3018 2980 2958 2936 2900 2858 2817 2790 2764 2745 2726 2701 0 2600 2566 2550 2533 2512 2480 2459 2439 2419 2409 2404 2400 2395 2385 2380 2376 2361 2347 2324 2306 2288 2271 2258 2249 2241 2232 2232 2220 2211 2195 2171 2155 2135 2120 2109 2083 2047 2009 1992 1952 1911 1893 1866 1828 1809 1798 1787 1776 1776 1782 1774 1782 0 2241 2241 2241 2236 2236 2232 2224 2220 2215 2211 2207 2199 2199 2195 2199 2195 2187 2187 2187 2187 2183 2183 2171 2167 2159 2147 2135 2128 2116 2105 2083 2050 2022 2009 1998 1992 1978 1972 1955 1949 1939 1930 1920 1914 1908 1905 1899 1896 1890 1875 1857 1837 1812 1803 1790 1768 1750 1735 1727 1722 1719 1717 1715 1712 1707 1702 1692 1685 1678 1671 1662 1657 1652 1650 1650 1648 1648 1645 1643 1643 1643 1643 1643 1641 1641 1641 1641 1641 1641 1641 1641 1643 1643 1643 1643 1643 1643 1643 1643 1643 1641 1641 1639 1639 1636 1634 1632 1629 1627 1627 1625 1621 1618 1612 1612 1605 1603 1603 1599 1597 0 0 0 0 0 0 0 0 0 0 0 0 0 0 0 0 0 0 0 0 0 0
0 0 0 0 0 0 0 0 0 0 0 0 0 0 0 0 0 0 0 0 0 0 0 0 0 0 0 0 0 0 0 0 0 1795 1801 1803 1809 1812 1817 1820 1826 1826 1828 1828 1826 1823 1812 1803 1795 1776 1747 1725 1715 1695 1669 1652 1643 1639 1634 1629 1625 1621 1621 1621 1625 1627 1629 1636 1641 1648 1655 1676 1702 1717 1727 1747 1766 1784 1790 1798 1801 1801 1803 1803 1806 1809 1812 1814 1826 1837 1851 1863 1872 1881 1887 1893 1899 1905 1920 1939 1955 1982 1995 2005 2019 2047 2072 2090 2105 2113 2120 2139 2179 2215 2241 2266 0 0 0 0 2972 3003 3041 3073 3089 3089 3089 0 3018 2987 2972 2958 2936 2914 2878 2858 2837 2830 2830 2810 2810 2790 2771 2758 2751 2738 2726 2720 2701 2676 2658 2647 2629 2612 2589 2572 2561 0 0 0 0 0 2279 2232 2167 2135 2124 2116 2109 2105 2101 2098 2098 2098 2098 2098 2098 0 0 0 0 0 0 0 0 0 0 3449 3439 3439 3419 3419 3409 3409 3409 3409 3409 3390 3390 3380 3380 3370 3342 3323 3295 3286 3268 3259 3241 3241 3223 3180 3049 2965 2885 0 2726 2676 2676 2658 2658 2658 2670 2695 2738 2851 0 3065 0 3342 3479 3510 3542 3553 3553 3563 3574 3574 3596 3607 3607 3607 3607 3607 3585 3574 3553 3542 3521 3510 3500 3490 3469 3449 3419 3390 3370 3351 3323 3295 3295 3295 3286 3286 3314 3323 3351 3390 3419 3449 3459 3479 3479 3479 3479 3479 3479 3479 3490 3500 3500 3510 3510 3510 3521 3521 3510 3510 3510 3510 3500 3500 3500 3500 3490 3490 3479 3479 3469 3469 3469 3459 3459 0 0 0 0 0 0 0 0 0 0 0 0 4464 0 0 4318 4180 0 0 0 3574 3510 3490 3459 3419 3390 3370 3370 3342 3323 3314 3295 3295 3314 3314 3323 3323 3323 3323 3342 3342 3342 3351 3351 3351 3370 3380 3380 3390 3390 3409 3409 3409 3409 3409 3409 3409 3409 3419 3419 3419 3419 3439 3459 3469 3479 3490 3500 3510 3521 3531 3542 3542 3542 3542 3553 3542 3542 3521 3510 3500 3469 3459 3419 3390 3380 3351 3351 3342 3323 3314 3314 3286 3277 3277 3277 3268 3268 3268 3268 3268 3268 3277 3286 3295 3323 3370 3409 3449 3479 3510 3531 3553 3574 3607 3640 3651 3651 3640 3596 3553 3510 3449 3351 3277 3223 3189 3105 3049 3003 2972 2950 2921 2885 2851 2810 2790 2771 2751 2732 2713 0 2617 2577 2550 2533 2512 2480 2459 2429 2419 2409 2400 2395 2395 2385 2380 2371 2357 2338 2320 2302 2279 2266 2253 2241 2236 2232 2224 2211 2199 2183 2159 2143 2124 2113 2105 2083 2047 2012 1995 1962 1920 1896 1875 1837 1809 1801 1790 1782 1776 1784 1790 1798 2220 2220 2220 2220 2215 2220 2215 2211 2207 2199 2195 2187 2183 2183 2183 2183 2183 2183 2183 2179 2179 2179 2171 2167 2159 2155 2143 2135 2128 2116 2105 2086 2061 2036 2012 2002 1995 1985 1975 1965 1955 1949 1939 1930 1920 1914 1908 1902 1899 1893 1884 1872 1851 1823 1809 1798 1776 1755 1737 1727 1725 1719 1717 1715 1712 1707 1702 1695 1685 1678 1671 1662 1657 1652 1650 1650 1648 1648 1643 1643 1643 1641 1641 1641 1641 1641 1641 1641 1641 1641 1641 1641 1641 1643 1643 1643 1643 1643 1643 1643 1641 1641 1639 1639 1636 1634 1632 1629 1627 1627 1625 1621 1621 1618 1614 1612 1610 1603 1603 1599 1597 0 0 0 0 0 0 0 0 0 0 0 0 0 0 0 0 0 0 0 0 0 0
0 0 0 0 0 0 0 0 0 0 0 0 0 0 0 0 0 0 0 0 0 0 0 0 0 0 0 0 0 1755 1763 1774 1782 1790 1798 1801 1803 1806 1809 1812 1812 1814 1814 1812 1812 1809 1801 1790 1768 1742 1725 1715 1692 1669 1650 1643 1639 1632 1625 1621 1618 1614 1618 1618 1621 1625 1629 1639 1643 1650 1662 1685 0 1725 1737 1755 1774 1787 1795 1798 1801 1803 1803 1809 1809 1809 1812 1814 1820 1828 1843 1846 1857 1872 1881 1890 1896 1905 1917 1933 1955 1975 1992 1998 2012 2029 2057 2083 2101 2109 2120 2147 2195 2232 2253 2315 0 0 0 0 0 0 0 0 2980 2980 2972 2965 2958 2950 2936 2914 2900 2864 2858 2851 2837 2830 2817 2817 2810 2790 2777 2758 2751 2745 2738 2726 2720 2707 2701 2695 2689 2676 2670 2658 2647 2629 2583 0 0 0 0 2249 2179 2124 2120 2113 2109 2105 2101 2098 2098 2101 2098 2098 2098 0 0 0 0 0 3439 3449 3449 3439 3419 3419 3409 3390 3390 3390 3390 3390 3390 3390 3380 3390 3380 3380 3370 3351 3342 3323 3295 3286 3268 3250 3241 3241 3223 3197 3089 0 0 2797 2738 2695 2676 2658 2658 2658 2670 2695 2732 2790 0 2980 3097 3215 3314 3390 3479 3500 3510 3521 3531 3542 3553 3563 3563 3563 3553 3553 3553 3542 3521 3510 3500 3490 3469 3449 3419 3390 3380 3351 3342 3314 3295 3286 3277 3277 3268 3268 3277 3295 3314 3351 3370 3390 3409 3439 3439 3449 3449 3449 3449 3449 3459 3469 3479 3490 3500 3500 3500 3500 3500 3500 3490 3490 3469 3459 3459 3449 3439 3439 3419 3419 3409 3390 3409 3380 0 0 0 0 0 0 0 0 0 0 0 0 0 4481 4414 4398 4333 4271 0 0 0 3596 3521 3469 3439 3380 3351 3342 3323 3314 3286 3286 3277 3268 3277 3277 3286 3286 3286 3286 3286 3295 3295 3295 3314 3314 3314 3323 3323 3342 3342 3351 3351 3351 3351 3351 3351 3370 3370 3370 3370 3380 3380 3390 3409 3439 3449 3459 3469 3490 3500 3510 3521 3521 3521 3521 3521 3521 3521 3500 3490 3459 3439 3409 3390 3351 3342 3314 3314 3295 3277 3277 3268 3259 3250 3250 3241 3241 3241 3241 3241 3241 3241 3241 3250 3268 3286 3314 3351 3409 3459 3500 3521 3542 3553 3574 3585 3607 3607 3585 3563 3542 3500 3419 3323 3259 3215 3180 3105 3026 2995 2972 2950 2921 2885 2851 2817 2790 2777 2758 2738 2726 2689 2635 2583 2555 2539 2517 2480 2459 2429 2419 2404 2400 2395 2390 2385 2376 2366 2352 2333 2315 2293 2275 2262 2253 2241 2236 2228 2220 2211 2195 2171 2147 2132 2120 2109 2098 2075 2040 2012 1998 1972 1924 1896 1878 1834 1809 1801 1790 1776 1782 1792 1798 1806 2183 2183 2179 2183 2183 2187 2187 2183 2179 2171 2171 2167 2167 2167 2159 2167 2167 2159 2159 2167 2159 2159 2155 2147 2143 2139 2132 2124 2120 2113 2101 2083 2057 2029 2012 2005 1995 1988 1978 1965 1955 1949 1939 1930 1924 1917 1911 1905 1902 1896 1890 1878 1854 1826 1809 1798 1782 1758 1740 1730 1725 1719 1717 1715 1712 1707 1702 1695 1688 1678 1671 1662 1657 1652 1650 1648 1648 1645 1643 1643 1641 1641 1641 1641 1641 1641 1641 1641 1641 1641 1641 1641 1641 1643 1643 1643 1643 1643 1643 1643 1641 1641 1639 1639 1636 1634 1632 1629 1627 1625 1625 1621 1618 1614 1614 1612 1610 1603 1599 1599 1597 1597 0 0 0 0 0 0 0 0 0 0 0 0 0 0 0 0 0 0 0 0 0
0 0 0 0 0 0 0 0 0 0 0 0 0 0 0 0 0 0 0 0 0 0 0 0 0 0 0 1735 1737 1747 1755 1766 1774 1784 1792 1795 1798 1801 1803 1803 1803 1803 1803 1803 1801 1795 1784 1758 1740 1725 1712 1688 1662 1650 1643 1639 1629 1621 1612 1612 1612 1610 1612 1612 1618 1621 1629 1639 1645 1655 1671 1695 1717 1730 1747 1766 1776 1790 1798 1801 1803 1803 1806 1809 1809 1809 1812 1812 1817 1823 1828 1837 1846 1857 1875 1887 1893 1902 1914 1930 1952 1972 1988 1998 2009 2026 2050 2075 2098 2109 2120 2159 2211 2241 2279 2357 2459 2561 2707 2751 2810 2878 2907 2928 2928 2928 2914 2914 2907 2885 2878 2858 2858 2851 2837 2837 2837 2830 2830 2810 2797 2790 2777 2764 2758 2751 2738 2732 2726 2726 2720 2720 2720 2720 2720 2720 2720 2707 2695 2652 2572 0 0 0 2195 2120 2116 2113 2109 2105 2105 2101 2101 2101 2101 2101 2098 0 0 0 0 3390 3390 3390 3390 3409 3390 3390 3380 3380 3380 3380 3380 3370 3380 3380 3370 3370 3370 3370 3351 3342 3323 3314 3286 3277 3259 3250 3241 3232 3223 3206 3105 0 0 0 2745 2695 2670 2658 2658 2658 2670 2695 2726 2764 0 2943 2980 3105 3206 3250 3342 3409 3449 3479 3500 3510 3521 3531 3531 3531 3521 3521 3510 3500 3500 3479 3459 3419 3409 3380 3351 3342 3323 3295 3286 3277 3277 3268 3259 3259 3250 3250 3259 3268 3277 3295 3323 3351 3380 3390 3409 3409 3409 3419 3419 3419 3439 3449 3459 3469 3479 3490 3490 3479 3479 3469 3469 3449 3439 3419 3409 3390 3380 3380 3380 3370 3370 3351 3342 3342 3314 0 0 0 0 0 0 0 0 0 0 0 0 0 0 4431 4398 4349 4255 0 0 0 0 0 3409 3342 3314 3286 3286 3277 3259 3250 3250 3250 3259 3259 3259 3259 3268 3268 3268 3268 3277 3277 3277 3277 3286 3286 3286 3295 3295 3295 3295 3295 3295 3295 3314 3314 3314 3314 3323 3323 3342 3342 3370 3380 3390 3409 3419 3449 3469 3479 3500 3500 3500 3500 3490 3490 3479 3459 3439 3409 3390 3370 3342 3314 3295 3286 3277 3268 3259 3250 3241 3241 3232 3232 3232 3223 3223 3223 3215 3215 3223 3232 3232 3241 3250 3286 3314 3370 3419 3469 3500 3521 3542 3553 3553 3563 3574 3563 3542 3521 3469 3380 3295 3241 3215 3172 3097 3018 2987 2965 2943 2921 2885 2851 2817 2797 2784 2758 2745 2732 2701 2652 2594 2561 2539 2517 2491 2459 2429 2414 2404 2400 2395 2390 2380 2376 2366 2352 2324 2306 2288 2271 2258 2249 2241 2232 2228 2215 2199 2183 2159 2139 2124 2113 2105 2090 2065 2036 2012 1995 1972 0 1899 0 1837 1812 1801 1790 1782 1787 1798 1803 0 0 2124 2113 2132 2143 2147 2147 2143 2143 2147 2143 2143 2143 2143 2143 2143 2143 2143 2143 2143 2143 2139 2139 2135 2132 2128 2124 2120 2113 2105 2094 2075 2050 2029 2012 2005 1995 1988 1978 1972 1962 1952 1943 1939 1930 1920 1914 1908 1905 1896 1893 1881 1863 1834 1812 1801 1784 1758 1740 1727 1725 1719 1717 1715 1712 1707 1702 1695 1688 1683 1671 1662 1659 1652 1650 1648 1648 1645 1643 1641 1641 1641 1641 1641 1641 1641 1641 1641 1641 1641 1641 1641 1641 1643 1643 1643 1643 1643 1643 1641 1641 1641 1639 1639 1636 1634 1632 1629 1627 1625 1625 1621 1618 1614 1614 1612 1605 1603 1599 1599 1597 1597 0 0 0 0 0 0 0 0 0 0 0 0 0 0 0 0 0 0 0 0 0
0 0 0 0 0 0 0 0 0 0 0 0 0 0 0 0 0 0 0 0 0 0 0 0 0 0 1730 1735 1735 1742 1750 1758 1768 1774 1782 1787 1792 1792 1795 1795 1798 1798 1792 1790 1784 1768 1750 1730 1719 1710 1688 1662 1648 1641 1636 1629 1618 1612 1610 1605 1605 1605 1610 1612 1614 1621 1629 1641 1648 1662 1683 1707 1722 1735 1755 1766 1782 1790 1795 1798 1801 1803 1803 1803 1806 1806 1809 1809 1812 1814 1820 1826 1837 1851 1866 1881 1893 1902 1914 1933 1952 1972 1988 1995 2009 2022 2047 2072 2094 2109 2124 2171 2228 2253 2315 2385 2470 2561 2658 2726 2751 2777 2797 2817 2830 2830 2837 2837 2837 2837 2837 2830 2830 2837 2837 2830 2830 2817 2817 2817 2810 2797 2784 2764 2758 2751 2745 2738 2732 2732 2726 2726 2726 2732 2732 2732 2738 2738 2732 2726 0 0 0 0 0 0 2113 2113 2109 2105 2105 2105 2101 2105 2105 2101 2101 2101 0 0 3351 3351 3370 3370 3380 3380 3380 3370 3370 3351 3351 3351 3351 3351 3342 3351 3351 3342 3342 3342 3323 3323 3314 3286 3277 3268 3259 3241 3241 3232 3232 3215 3121 0 0 0 2751 2707 2670 2652 2658 2658 2670 2695 2720 2751 2790 2878 0 2980 3105 3189 3232 3277 3342 3390 3439 3479 3490 3500 3500 3500 3490 3479 3469 3459 3439 3409 3380 3351 3323 3314 3295 3286 3277 3268 3259 3259 3250 3250 3241 3241 3241 3241 3241 3241 3259 3277 3286 3314 3342 3351 3370 3380 3380 3380 3390 3390 3390 3409 3419 3439 3449 3459 3459 3459 3449 3439 3419 3409 3390 3380 3370 3342 3323 3323 3323 3314 3314 3295 3286 3268 3268 3259 3250 0 0 0 0 0 0 0 0 0 0 0 0 0 4447 4382 4333 4255 3930 3720 0 0 3351 3295 3268 3259 3259 3250 3241 3232 3232 3232 3241 3241 3241 3250 3250 3250 3250 3250 3250 3250 3250 3250 3259 3259 3259 3259 3259 3259 3259 3259 3259 3259 3259 3268 3268 3268 3277 3277 3286 3295 3314 3323 3342 3351 3370 3390 3419 3439 3449 3459 3459 3459 3449 3449 3419 3390 3380 3351 3342 3314 3295 3277 3268 3250 3250 3241 3241 3232 3232 3215 3215 3215 3206 3206 3206 3206 3206 3206 3206 3206 3215 3215 3232 3250 3277 3323 3380 3449 3490 3521 3531 3542 3553 3553 3553 3542 3531 3510 3459 3370 3286 3241 3206 3155 3073 3010 2980 2958 2943 2921 2885 2851 2830 2810 2790 2764 2751 2732 2707 2652 2600 2561 2544 2522 2491 2454 2424 2414 2404 2400 2395 2385 2380 2376 2366 2352 2324 2306 2279 2266 2253 2249 2241 2232 2220 2211 2187 2171 2147 2124 2116 2105 2094 2075 2050 2029 2009 1995 1965 1920 1896 1878 1837 1812 1801 1790 1782 1787 1801 1809 0 1943 1995 0 2105 2120 2124 2124 2124 2124 2124 2124 2124 2124 2128 2128 2128 2128 2128 2132 2128 2128 2124 2124 2124 2124 2120 2116 2113 2109 2101 2086 2061 2040 2022 2009 2002 1995 1988 1978 1972 1962 1952 1943 1939 1930 1924 1917 1911 1905 1902 1893 1887 1866 1837 1814 1801 1787 1763 1740 1727 1725 1719 1717 1715 1712 1705 1702 1695 1688 1683 1671 1664 1659 1655 1650 1648 1648 1645 1643 1641 1641 1639 1641 1641 1641 1641 1641 1641 1641 1641 1641 1641 1641 1643 1643 1643 1643 1643 1643 1641 1641 1641 1639 1639 1636 1634 1632 1629 1629 1627 1625 1621 1618 1614 1614 1612 1605 1603 1603 1599 1597 1599 1599 0 0 0 0 0 0 0 0 0 0 0 0 0 0 0 0 0 0 0 0
0 0 0 0 0 0 0 0 0 0 0 0 0 0 0 0 0 0 0 0 0 0 0 0 0 0 1730 1732 1735 1740 1747 1755 1763 1766 1774 1776 1782 1784 1784 1784 1784 1782 1776 1768 1755 1740 1727 1717 1707 1685 1662 1648 1641 1636 1627 1618 1612 1605 1603 1603 1603 1603 1605 1610 1614 1625 1634 1643 1650 1669 1692 1712 1725 1737 1750 1768 1776 1787 1792 1798 1801 1801 1801 1803 1803 1803 1803 1803 1806 1809 1812 1817 1826 1837 1857 1878 1890 1902 1914 1933 1955 1975 1992 1998 2009 2026 2050 2075 2098 2109 2128 2187 2236 2271 2347 2390 2475 2550 2635 2689 2726 2732 2751 2758 2764 2771 2784 2790 2797 2810 2817 2817 2830 2830 2837 2830 2830 2837 2830 2830 2817 2810 2790 2777 2764 2758 2751 2738 2738 2732 2732 2732 2732 2732 2738 2738 2751 2751 2758 2751 2738 0 0 0 0 0 2113 2113 2113 2109 2105 2105 2105 2105 2105 2105 2101 2101 0 0 3342 3323 3323 3342 3351 3351 3351 3342 3342 3342 3323 3323 3314 3323 3323 3314 3314 3314 3314 3314 3295 3295 3286 3277 3268 3259 3250 3241 3232 3223 3215 3206 3105 0 0 0 2751 2701 2658 2652 2652 2658 2670 2695 2720 2738 2764 2817 2885 0 0 3073 3163 3215 3241 3277 3342 3390 3419 3449 3449 3449 3419 3419 3390 3380 3351 3323 3295 3277 3268 3259 3250 3241 3241 3241 3241 3241 3232 3241 3232 3232 3232 3232 3232 3232 3241 3250 3259 3277 3286 3314 3323 3342 3342 3351 3351 3351 3370 3380 3380 3390 3409 3419 3409 3409 3409 3390 3370 3351 3342 3323 3314 3295 3286 3277 3277 3268 3268 3259 3250 3241 3241 0 0 0 0 0 0 0 0 0 0 0 0 0 0 0 0 4431 4349 4271 3930 0 0 0 0 3259 3241 3232 3232 3232 3223 3223 3223 3223 3232 3232 3232 3232 3232 3241 3232 3232 3232 3232 3232 3232 3232 3232 3232 3232 3232 3232 3232 3232 3232 3232 3241 3241 3241 3241 3241 3241 3250 3259 3268 3277 3286 3295 3323 3342 3370 3380 3390 3409 3409 3409 3390 3380 3370 3342 3323 3314 3286 3277 3259 3250 3241 3232 3232 3223 3215 3215 3206 3206 3197 3197 3197 3189 3189 3180 3180 3180 3180 3189 3189 3197 3206 3223 3241 3268 3323 3380 3449 3500 3510 3521 3531 3542 3542 3542 3521 3510 3469 3370 3286 3232 3197 3146 3065 3003 2972 2958 2943 2914 2878 2851 2830 2817 2790 2777 2751 2738 2713 2658 2600 2566 2544 2522 2480 2454 2424 2414 2400 2400 2395 2385 2380 2376 2366 2347 2324 2302 2279 2262 2253 2249 2241 2232 2220 2207 2183 2159 2135 2120 2109 2098 2083 2061 2036 2019 2005 1995 1965 1924 1899 1878 1837 1812 1801 1787 1782 1787 1801 1812 0 1924 1982 2012 2072 2101 2105 2109 2109 2109 2109 2113 2113 2113 2113 2113 2113 2116 2116 2116 2116 2116 2113 2113 2113 2109 2109 2105 2101 2094 2086 2065 2047 2029 2015 2005 1998 1992 1985 1978 1972 1962 1952 1949 1939 1930 1924 1920 1914 1908 1902 1896 1890 1875 1846 1817 1803 1790 1763 1740 1727 1722 1719 1717 1715 1710 1705 1702 1695 1688 1683 1671 1664 1659 1655 1650 1648 1648 1643 1641 1641 1641 1639 1641 1641 1641 1641 1641 1641 1641 1641 1641 1643 1641 1643 1643 1643 1643 1643 1643 1641 1641 1641 1639 1639 1636 1634 1632 1632 1629 1627 1625 1621 1618 1614 1614 1612 1610 1605 1603 1599 1599 1599 1599 0 0 0 0 0 0 0 0 0 0 0 0 0 0 0 0 0 0 0 0
0 0 0 0 0 0 0 0 0 0 0 0 0 0 0 0 0 0 0 0 0 0 0 0 0 0 1725 1727 1727 1732 1735 1740 1742 1750 1758 1766 1763 1766 1766 1763 1763 1758 1750 1740 1732 1725 1717 1705 1683 1662 1648 1641 1634 1625 1614 1610 1603 1603 1599 1599 1599 1603 1605 1612 1618 1627 1636 1645 1655 1676 1700 1715 1725 1737 1755 1766 1774 1784 1790 1795 1798 1801 1801 1801 1801 1801 1801 1801 1803 1806 1809 1812 1820 1828 1851 1872 1890 1902 1917 1943 1972 1985 1995 2005 2015 2036 2061 2083 2101 2113 2139 2207 2245 2293 2366 2404 2491 2550 2617 2658 2695 2713 2726 2738 2745 2751 2758 2771 2784 2790 2797 2810 2817 2830 2837 2837 2837 2837 2851 2851 2837 2830 2810 2790 2771 2758 2751 2751 2745 2738 2738 2738 2738 2738 2745 2751 2758 2764 2777 2777 2764 0 0 0 0 0 2116 2113 2113 2109 2109 2109 2105 2105 2105 2105 2101 2101 0 0 3314 3295 3314 3314 3314 3323 3323 3314 3314 3295 3295 3295 3286 3286 3286 3286 3286 3286 3286 3286 3277 3277 3268 3259 3250 3241 3241 3232 3232 3215 3206 3180 3049 2972 0 0 2738 2689 2652 2652 2652 2652 2658 2689 2713 2732 2751 2777 2817 2878 2943 2980 3041 3146 3197 3223 3250 3295 3342 3370 3370 3351 3351 3323 3314 3286 3277 3259 3241 3232 3232 3223 3223 3223 3223 3223 3223 3223 3223 3232 3232 3223 3223 3223 3215 3223 3232 3232 3241 3250 3259 3277 3286 3286 3314 3295 3314 3323 3323 3342 3342 3351 3370 3370 3370 3370 3351 3342 3323 3314 3286 3277 3268 3259 3250 3241 3241 3241 3241 3232 3232 3223 3215 3206 3206 3197 0 0 0 0 0 0 0 0 0 0 0 0 0 0 4382 0 0 0 0 0 3250 3232 3215 3215 3215 3215 3206 3206 3206 3215 3215 3223 3223 3223 3223 3223 3223 3223 3215 3215 3215 3215 3215 3215 3215 3215 3215 3215 3215 3215 3215 3215 3215 3215 3215 3223 3223 3232 3232 3232 3241 3241 3250 3259 3277 3286 3314 3342 3342 3342 3342 3351 3342 3323 3314 3286 3286 3277 3259 3250 3241 3232 3232 3215 3215 3206 3206 3197 3197 3180 3172 3172 3163 3163 3155 3155 3146 3146 3146 3155 3155 3172 3180 3197 3206 3232 3250 3277 3342 3409 3459 3479 3500 3500 3510 3510 3500 3490 3459 3370 3277 3232 3189 3121 3041 2987 2965 2950 2936 2907 2878 2851 2830 2810 2797 2777 2758 2738 2713 2670 2612 2566 2544 2522 2480 2454 2424 2409 2400 2395 2390 2385 2380 2376 2361 2347 2324 2302 2275 2262 2253 2249 2236 2232 2215 2195 2171 2147 2128 2113 2101 2086 2061 2040 2022 2012 2002 1992 1965 1920 1899 1881 1843 1812 1801 1790 1782 1790 1801 1817 0 1905 1952 1995 2026 2061 2065 2072 2075 2086 2090 2090 2094 2094 2098 2101 2101 2101 2105 2101 2105 2105 2101 2101 2098 2098 2094 2090 2083 2072 2061 2047 2029 2019 2009 2002 1995 1992 1982 1975 1965 1962 1952 1949 1939 1930 1924 1920 1914 1911 1905 1899 1893 1881 1851 1823 1806 1792 1766 1740 1727 1722 1717 1717 1715 1710 1705 1702 1695 1688 1683 1671 1664 1659 1655 1650 1648 1648 1643 1641 1641 1641 1641 1641 1641 1641 1641 1641 1641 1643 1641 1643 1643 1643 1643 1645 1643 1643 1643 1643 1643 1641 1641 1639 1639 1639 1636 1634 1632 1629 1629 1627 1625 1621 1618 1618 1614 1612 1610 1605 1605 1603 1603 1603 0 0 0 0 0 0 0 0 0 0 0 0 0 0 0 0 0 0 0 0
0 0 0 0 0 0 0 0 0 0 0 0 0 0 0 0 0 0 0 0 0 0 0 0 0 1719 1719 1717 1717 1719 1725 1725 1727 1730 1735 1740 1742 1742 1742 1740 1737 1735 1730 1725 1719 1715 1700 1683 1662 1650 1641 1634 1625 1614 1610 1603 1599 1597 1597 1597 1599 1603 1610 1612 1621 1629 1639 1648 1657 1678 1702 1715 1725 1735 1747 1763 1768 1776 1787 1792 1795 1798 1798 1801 1801 1801 1801 1801 1803 1803 1809 1812 1817 1828 1851 1872 1890 1902 1920 1952 1975 1992 2002 2012 2026 2050 2075 2094 2105 2116 2147 2220 2253 2320 2380 2424 2512 2561 2629 2658 2689 2707 2726 2732 2738 2745 2751 2758 2764 2777 2790 2810 2817 2837 2858 2864 2864 2864 2878 2864 2864 2858 2830 2797 2784 2771 2758 2751 2751 2745 2738 2745 2745 2745 2751 2758 2771 2784 2797 2810 2810 0 0 0 0 0 2113 2113 2113 2113 2109 2109 2109 2109 2105 2105 2105 2101 2105 3277 3277 3277 3286 3286 3286 3286 3286 3286 3277 3277 3277 3268 3268 3268 3268 3268 3277 3268 3268 3268 3268 3259 3259 3250 3241 3232 3232 3232 3215 3197 3172 3130 3003 2943 0 0 2732 2676 2647 2635 2652 2652 2658 2676 2701 2720 2732 2751 2758 2790 2858 2928 2965 3018 3105 3172 3206 3241 3259 3277 3286 3286 3277 3259 3241 3241 3232 3223 3215 3206 3206 3197 3197 3197 3206 3206 3206 3206 3215 3215 3215 3215 3215 3215 3215 3215 3223 3223 3232 3232 3241 3250 3259 3268 3277 3277 3277 3286 3286 3295 3314 3314 3323 3323 3323 3314 3314 3295 3277 3268 3259 3241 3241 3232 3232 3223 3215 3215 3215 3215 3206 3206 3197 3197 3180 3172 0 0 0 0 0 0 0 0 0 0 0 0 0 0 4398 0 0 0 0 0 3223 3206 3197 3197 3197 3197 3197 3197 3197 3197 3206 3206 3215 3215 3215 3215 3206 3206 3206 3206 3206 3206 3206 3197 3197 3197 3197 3197 3197 3197 3197 3197 3197 3197 3206 3206 3206 3206 3206 3215 3223 3223 3232 3241 3241 3268 3277 3286 3295 3295 3286 3286 3286 3286 3268 3259 3250 3241 3232 3232 3223 3215 3206 3197 3197 3189 3180 3172 3163 3155 3146 3130 3121 3121 3105 3105 3097 3097 3097 3105 3105 3121 3130 3146 3172 3197 3206 3223 3241 3277 3323 3370 3409 3439 3449 3449 3439 3419 3370 3295 3241 3215 3163 3089 3018 2980 2958 2950 2928 2907 2864 2851 2830 2817 2797 2784 2758 2738 2720 2670 2612 2566 2544 2522 2480 2444 2424 2409 2400 2395 2390 2385 2380 2376 2366 2347 2324 2302 2275 2262 2253 2245 2236 2228 2211 2187 2159 2135 2120 2109 2094 2072 2050 2036 2022 2012 2005 1992 1965 1924 1902 1881 1843 1812 1801 1790 1784 1792 1803 1826 1866 1896 1920 1975 2002 2015 2022 2029 2036 2047 2057 2057 2061 2065 2065 2072 2072 2075 2075 2075 2083 2083 2075 2075 2072 2072 2065 2061 2050 2047 2036 2026 2015 2009 2002 1995 1992 1985 1978 1965 1962 1952 1949 1943 1933 1930 1924 1917 1917 1911 1905 1902 1893 1884 1857 1828 1809 1795 1768 1742 1727 1722 1717 1717 1715 1710 1705 1700 1695 1688 1683 1671 1664 1659 1655 1650 1650 1648 1645 1643 1641 1641 1641 1641 1641 1641 1641 1641 1641 1643 1643 1643 1645 1643 1645 1648 1645 1645 1643 1643 1643 1641 1641 1641 1639 1639 1636 1636 1634 1632 1629 1627 1625 1625 1621 1621 1618 1614 1612 1610 1605 1605 1605 1605 0 0 0 0 0 0 0 0 0 0 0 0 0 0 0 0 0 0 0 0
0 0 0 0 0 0 0 0 0 0 0 0 0 0 0 0 0 0 0 0 0 0 0 0 0 0 0 1712 0 1715 1715 1715 1717 1719 1722 1725 1725 1727 1727 1725 1725 1719 1717 1715 1707 1695 1678 1659 1650 1643 1636 1627 1614 1610 1603 1599 1597 1592 1597 1599 1599 1605 1610 1618 1627 1632 1641 1648 1659 1683 1702 1715 1722 1730 1740 1750 1763 1768 1782 1787 1792 1795 1798 1798 1801 1801 1801 1801 1803 1803 1809 1812 1817 1828 1851 1875 1893 1905 1930 1962 1988 1998 2012 2026 2050 2072 2090 2105 2113 2120 2167 2228 2258 2333 2380 2424 2517 2561 2629 2652 2676 2695 2713 2726 2732 2738 2745 2751 2758 2771 2784 2810 2830 2851 2864 2885 2900 2907 2914 2914 2921 2907 2864 2830 2797 2784 2771 2758 2751 2751 2745 2745 2745 2751 2751 2764 2784 2797 2817 2837 2858 2878 0 0 0 0 0 2116 2116 2113 2113 2109 2109 2109 2109 2105 2105 2101 2101 3250 3259 3259 3268 3268 3268 3277 3277 3277 3268 3259 3259 3259 3259 3259 3259 3259 3259 3259 3250 3250 3250 3250 3241 3241 3232 3232 3223 3223 3206 3180 3146 3065 2972 2914 0 0 2726 2676 2647 2647 2647 2647 2652 2670 2676 2701 2713 2726 2738 2751 2784 2851 2914 2958 3003 3089 3155 3197 3215 3232 3241 3232 3232 3215 3206 3206 3197 3197 3180 3172 3172 3172 3172 3180 3189 3189 3189 3197 3197 3206 3206 3206 3206 3206 3206 3206 3215 3215 3215 3223 3232 3232 3241 3241 3250 3250 3259 3268 3268 3268 3277 3286 3277 3286 3286 3277 3268 3259 3250 3241 3232 3223 3215 3215 3206 3206 3197 3197 3197 3197 3180 3172 3163 3163 3155 3146 3130 0 0 0 0 0 0 0 0 0 0 0 0 0 0 0 0 0 0 0 3206 3180 3172 3163 3172 3163 3163 3163 3172 3180 3189 3197 3197 3197 3197 3197 3197 3197 3197 3197 3197 3189 3180 3180 3180 3180 3180 3172 3172 3172 3172 3172 3172 3180 3180 3189 3189 3197 3197 3197 3206 3215 3215 3223 3232 3241 3241 3259 3259 3268 3259 3259 3250 3250 3241 3232 3232 3223 3215 3206 3206 3197 3189 3180 3172 3163 3155 3146 3130 3105 3097 3089 3089 3089 3073 3065 3065 3065 3065 3065 3065 3073 3073 3089 3105 3130 3155 3172 3197 3206 3223 3241 3268 3295 3342 3342 3323 3323 3286 3250 3223 3197 3130 3065 3003 2972 2950 2943 2921 2900 2878 2858 2837 2817 2797 2784 2758 2738 2720 2670 2612 2566 2544 2517 2475 2444 2419 2409 2400 2395 2395 2385 2380 2376 2366 2347 2320 2293 2271 2258 2249 2241 2232 2220 2199 2179 2147 2128 2116 2105 2086 2065 2047 2029 2019 2009 2002 1992 1965 1920 1899 1881 1843 1812 1801 1792 1784 1792 1803 1823 1863 1893 1914 1955 1992 2005 2009 2009 2012 2019 2022 2026 2029 2029 2036 2040 2040 2047 2047 2047 2047 2047 2040 2040 2040 2036 2029 2026 2022 2019 2015 2009 2005 1998 1995 1992 1985 1978 1972 1965 1955 1952 1943 1939 1930 1924 1920 1917 1914 1911 1905 1902 1896 1890 1866 1834 1812 1798 1774 1747 1727 1722 1717 1715 1715 1710 1705 1700 1695 1688 1683 1671 1664 1659 1655 1650 1650 1648 1645 1643 1643 1641 1641 1643 1643 1643 1643 1643 1643 1645 1643 1645 1645 1645 1648 1648 1648 1645 1645 1643 1643 1643 1641 1641 1639 1639 1639 1636 1634 1634 1632 1629 1627 1627 1625 1621 1621 1618 1614 1612 1612 1610 1610 1610 0 0 0 0 0 0 0 0 0 0 0 0 0 0 0 0 0 0 0 0
0 0 0 0 0 0 0 0 0 0 0 0 0 0 0 0 0 0 0 0 0 0 0 0 0 0 0 0 0 0 0 1700 1700 1705 1710 1715 1715 1715 1715 1715 1712 1710 1705 1695 1685 1669 1657 1650 1643 1636 1627 1618 1610 1603 1599 1597 1592 1597 1599 1599 1605 1610 1614 1621 1629 1636 1643 1650 1662 1678 1700 1715 1719 1727 1735 1742 1755 1766 1774 1784 1790 1795 1798 1798 1801 1801 1801 1801 1803 1806 1809 1812 1820 1834 1854 1878 1893 1908 1939 1978 1995 2009 2026 2050 2075 2094 2105 2109 2120 2128 2179 2232 2266 2338 2385 2429 2517 2561 2617 2652 2676 2695 2707 2726 2732 2732 2738 2751 2758 2771 2790 2817 2837 2864 2900 2921 2928 2943 2943 2950 2943 2943 2900 2858 2830 2797 2777 2758 2758 2751 2745 2745 2745 2751 2758 2764 2784 2810 2830 2837 2864 2885 2921 0 0 0 0 0 2120 2116 2113 2113 2109 2109 2105 2105 2105 2105 2101 0 3241 3241 3250 3250 3250 3259 3259 3259 3259 3250 3241 3241 3241 3241 3241 3241 3241 3241 3241 3241 3241 3241 3241 3241 3232 3223 3215 3215 3197 3155 3089 2995 2950 2864 0 2738 2720 2670 2647 2635 2635 2647 2652 2658 2676 2695 2701 2720 2732 2738 2758 2790 2851 2921 2958 2995 3065 3130 3172 3197 3197 3197 3197 3189 3180 3163 3163 3146 3146 3130 3121 3121 3130 3146 3163 3163 3172 3180 3189 3197 3197 3197 3197 3197 3197 3206 3206 3206 3206 3206 3215 3223 3232 3232 3232 3232 3241 3241 3241 3250 3250 3250 3259 3250 3250 3250 3241 3241 3232 3223 3215 3206 3206 3197 3189 3180 3172 3163 3163 3155 3146 3146 3121 3121 3121 3097 3105 3089 0 0 0 0 0 0 0 0 0 0 0 0 0 0 0 0 3323 3215 3189 3146 3121 3121 3121 3130 3130 3130 3146 3155 3163 3172 3180 3180 3180 3180 3172 3172 3172 3163 3163 3155 3155 3155 3146 3146 3146 3146 3130 3130 3130 3130 3146 3146 3155 3155 3163 3172 3172 3180 3197 3197 3206 3206 3215 3223 3232 3232 3241 3232 3232 3232 3232 3232 3215 3215 3206 3206 3197 3197 3180 3163 3155 3146 3121 3121 3097 3097 3089 3065 3049 3041 3041 3041 3026 3026 3026 3018 3018 3018 3018 3018 3026 3026 3049 3065 3089 3097 3121 3146 3172 3197 3197 3215 3223 3223 3232 3232 3223 3215 3189 3155 0 3026 2987 2972 2950 2936 2914 2885 2864 2858 2837 2817 2797 2784 2758 2738 2713 2658 2600 2566 2544 2517 2470 2439 2419 2404 2400 2395 2390 2385 2380 2376 2361 2338 2320 2293 2271 2253 2245 2236 2228 2211 2187 2159 2135 2124 2113 2101 2083 2061 2040 2029 2019 2009 1998 1988 1962 1920 1899 0 1837 1812 1801 1792 1784 1790 1803 1820 1857 1893 1911 1952 1988 1998 2005 2005 2005 2009 2009 2012 2012 2009 2012 2015 2015 2015 2019 2019 2019 2015 2015 2012 2015 2012 2012 2009 2005 2005 2002 1998 1995 1995 1988 1982 1975 1965 1962 1952 1949 1943 1939 1933 1924 1920 1917 1914 1911 1908 1905 1902 1896 1890 1872 1843 0 0 1782 1750 1730 1725 1717 1715 1712 1710 1705 1700 1695 1688 1683 1671 1664 1659 1655 1652 1650 1648 1645 1645 1643 1643 1643 1643 1643 1643 1643 1643 1643 1645 1645 1648 1648 1648 1648 1648 1648 1648 1645 1645 1643 1643 1641 1641 1641 1639 1639 1639 1636 1636 1634 1632 1629 1629 1627 1625 1625 1621 1618 1614 1614 1614 1612 1612 0 0 0 0 0 0 0 0 0 0 0 0 0 0 0 0 0 0 0 0
0 0 0 0 0 0 0 0 0 0 0 0 0 0 0 0 0 0 0 0 0 0 0 0 0 0 0 0 1659 1664 1669 1669 1671 1678 1685 1692 1695 1700 1700 1695 1692 1688 1678 1671 1662 1652 1648 1641 1639 1629 1621 1612 1605 1599 1597 1597 1597 1597 1599 1603 1610 1614 1621 1627 1634 1639 1645 1652 1664 1683 1700 1712 1719 1725 1730 1737 1747 1758 1768 1782 1787 1792 1798 1798 1798 1801 1801 1803 1803 1809 1809 1812 1823 1843 1863 1887 1899 1917 1955 1992 2005 2022 2050 2075 2094 2105 2113 2120 2124 2139 2195 2241 2279 2352 2390 2439 2528 2566 2635 2652 2676 2695 2707 2726 2732 2738 2745 2751 2758 2777 2797 2830 2864 2907 2936 2943 2950 2958 2965 2972 0 2950 2921 2885 2837 2810 2784 2764 2758 2751 2738 2745 2745 2745 2751 2758 2777 2790 2817 2837 2858 2885 2914 0 0 0 0 0 0 2120 2116 2113 2113 2109 2109 2109 2105 2105 2101 2101 3232 3241 3241 3241 3241 3241 3250 3250 3241 3241 3241 3241 3232 3232 3241 3232 3232 3241 3232 3241 3232 3232 3232 3232 3223 3215 3206 3206 3172 3105 3026 2972 0 2817 2758 2732 2707 2670 2635 2635 2635 2635 2647 2658 2670 2689 2701 2713 2726 2732 2751 2764 2797 2864 2921 2958 2987 3041 3089 3121 3146 3130 3130 3121 3105 3097 3089 3073 3073 3073 3073 3089 3097 3105 3130 3146 3155 3172 3180 3189 3197 3197 3197 3197 3197 3197 3197 3206 3197 3206 3206 3206 3215 3215 3223 3223 3232 3232 3232 3232 3232 3232 3241 3241 3232 3232 3232 3223 3215 3206 3197 3197 3189 3172 3163 3155 3146 3130 3121 3121 3105 3097 3089 3089 3089 3073 3089 3089 0 0 0 0 0 0 0 0 0 0 0 0 0 0 0 0 0 3206 3155 3097 3089 3089 3089 3089 3089 3089 3097 3121 3130 3146 3146 3155 3146 3146 3146 3130 3130 3130 3130 3121 3121 3105 3105 3105 3097 3097 3097 3097 3097 3097 3105 3105 3121 3121 3130 3146 3146 3155 3172 3180 3189 3197 3206 3215 3215 3223 3223 3223 3223 3223 3215 3215 3206 3197 3197 3180 3163 3155 3146 3105 3097 3089 3073 3065 3065 3049 3041 3018 3018 3010 3010 3003 3003 3003 2995 2995 2995 2995 2987 2995 2995 2995 3003 3010 3010 3026 3041 3065 3089 3105 3121 3155 3163 3180 3189 3189 0 0 0 0 3049 3010 2980 2958 2943 2936 2907 2885 2864 2851 2830 2817 2797 2777 2758 2738 2713 2658 2600 2566 2544 2512 2470 2429 2414 2404 2400 2395 2390 2385 2380 2371 2357 2333 2306 2279 2262 2249 2236 2232 2211 2187 2167 2143 2128 2116 2109 2094 2075 2057 2040 2026 2015 2005 1998 1985 1955 1917 1896 1875 1834 1812 1801 1792 1784 1790 1801 1820 1854 1890 1908 1952 1985 1998 2002 2005 2005 2005 2005 2005 2002 2002 2002 2002 2002 2002 2002 2002 2002 2002 1998 1998 1998 1998 1995 1995 1995 1992 1992 1988 1985 1982 1975 1965 1965 1955 1952 1943 1939 1939 1933 1930 1920 1917 1914 1911 1911 1905 1905 1902 1896 1890 1875 1846 0 1801 1784 1750 1732 1725 1717 1715 1712 1707 1705 1700 1695 1688 1683 1671 1664 1659 1655 1652 1650 1650 1648 1645 1645 1645 1643 1645 1645 1645 1645 1645 1645 1648 1648 1648 1648 1648 1648 1648 1648 1648 1648 1645 1643 1643 1643 1641 1641 1641 1639 1639 1639 1636 1634 1634 1632 1629 1629 1627 1625 1625 1621 1618 1618 1618 1614 1614 0 0 0 0 0 0 0 0 0 0 0 0 0 0 0 0 0 0 0 0
0 0 0 0 0 0 0 0 0 0 0 0 0 0 0 0 0 0 0 0 0 0 0 0 0 0 0 0 1643 1645 1648 1650 1650 1655 1662 1669 1671 1676 1671 1671 1669 1662 1657 1650 1648 1643 1641 1636 1629 1621 1614 1605 1599 1599 1597 1592 1597 1599 1603 1605 1612 1618 1625 1632 1636 1641 1648 1655 1664 1683 1695 1710 1717 1722 1727 1735 1742 1755 1763 1774 1782 1790 1795 1798 1801 1801 1801 1803 1806 1809 1812 1820 1834 1854 1878 1893 1911 1943 1988 2005 2029 2065 2090 2105 2113 2120 2124 2132 2139 2155 2211 2249 2288 2361 2395 2454 2528 2566 2647 2658 2689 2701 2713 2726 2732 2738 2751 2758 2764 2784 2817 2858 2885 2921 2943 2958 2965 2972 2980 2980 0 2958 2936 2900 2851 2817 2790 2764 2758 2745 2738 2738 2738 2738 2751 2758 2771 2784 2810 2817 2837 2858 2900 0 0 0 0 0 0 2120 2120 2116 2113 2109 2109 2105 2105 2105 2101 2098 3232 3241 3241 3241 3241 3241 3241 3250 3241 3241 3232 3232 3232 3232 3232 3232 3232 3232 3232 3232 3232 3232 3232 3223 3215 3206 3197 3197 3146 3049 2987 0 2864 2777 2738 2720 2695 2658 2647 2629 2629 2635 2647 2652 2670 2676 2695 2707 2720 2732 2738 2751 2771 2817 2878 2928 2958 2980 3003 3026 3049 3065 3049 3049 3041 3026 3026 3026 3026 3041 3041 3049 3073 3089 3105 3130 3146 3155 3172 3172 3189 3189 3189 3189 3189 3197 3197 3197 3197 3197 3197 3206 3206 3206 3215 3215 3215 3215 3215 3215 3223 3223 3223 3223 3215 3215 3215 3206 3206 3197 3189 3180 3163 3155 3130 3121 3105 3097 3097 3089 3073 3073 3049 3049 3049 3049 3049 0 0 0 0 0 0 0 0 0 0 0 0 0 0 0 0 0 0 3197 3105 3065 3049 3065 3049 3049 3041 3049 3065 3073 3097 3105 3105 3121 3121 3105 3097 3097 3097 3097 3089 3089 3073 3073 3073 3065 3065 3065 3065 3065 3065 3065 3065 3073 3073 3089 3097 3097 3105 3121 3146 3155 3163 3180 3189 3197 3206 3206 3215 3206 3206 3206 3206 3206 3197 3180 3163 3146 3121 3105 3097 3065 3049 3041 3026 3026 3018 3003 2995 2987 2987 2987 2980 2980 2980 2980 2980 2980 2980 2980 2980 2972 2972 2972 2972 2980 2980 2980 2987 3003 3003 3026 3026 3049 3073 3089 3097 3097 3097 3097 3073 3049 3018 2987 2972 2958 2943 2921 2900 2878 2858 2851 2830 2817 2797 2777 2758 2732 2707 2652 2594 2561 2539 2506 2454 2424 2409 2400 2395 2390 2385 2380 2376 2361 2338 2315 2288 2262 2249 2236 2228 2211 2187 2167 2147 2132 2120 2113 2101 2086 2065 2050 2040 2026 2015 2005 1995 1982 1952 1911 1893 1866 1826 1809 1801 1792 1787 1790 1801 1820 1857 1890 1911 1949 1985 1998 2002 2002 1998 1998 1998 1998 1995 1995 1995 1995 1992 1992 1992 1992 1992 1988 1985 1985 1985 1982 1982 1978 1975 1972 1972 1965 1965 1962 1955 1952 1949 1949 1943 1939 1933 1930 1924 1920 1917 1914 1911 1908 1905 1905 1902 1902 1896 1890 1875 1846 1817 1803 1787 1755 1732 1725 1719 1715 1712 1707 1705 1700 1695 1688 1683 1676 1664 1659 1657 1655 1652 1650 1648 1648 1648 1648 1648 1648 1648 1648 1648 1648 1648 1648 1648 1648 1648 1650 1650 1650 1650 1648 1648 1648 1648 1645 1643 1643 1643 1641 1641 1639 1639 1639 1636 1634 1634 1632 1632 1629 1627 1627 1625 1625 1621 1621 1621 1621 0 0 0 0 0 0 0 0 0 0 0 0 0 0 0 0 0 0 0 0
0 0 0 0 0 0 0 0 0 0 0 0 0 0 0 0 0 0 0 0 0 0 0 0 0 0 0 0 0 1632 1639 1641 1641 1643 1648 1650 1655 1657 1655 1655 1652 1650 1648 1645 1641 1639 1636 1629 1621 1614 1610 1603 1599 1597 1597 1597 1597 1599 1603 1610 1614 1621 1629 1634 1639 1643 1648 1655 1664 1678 1695 1707 1715 1719 1725 1730 1737 1747 1758 1766 1776 1787 1792 1798 1801 1801 1803 1806 1809 1812 1817 1826 1851 1875 1896 1911 1952 1988 2009 2050 2090 2109 2120 2124 2135 2143 2147 2155 2167 2179 2224 2249 2293 2361 2395 2454 2533 2566 2652 2676 2695 2707 2726 2732 2738 2745 2758 2771 2784 2810 2837 2878 2900 2936 2950 2958 2958 2972 2972 2972 2965 2950 2936 2885 2851 2817 2784 2764 2751 2745 2738 2738 2738 2738 2745 2751 2758 2777 2790 2810 2817 2837 2864 0 0 0 0 0 2124 2120 2120 2116 2113 2109 2109 2105 2105 2101 2098 2101 3241 3241 3241 3241 3241 3241 3241 3241 3241 3232 3232 3232 3232 3223 3223 3223 3215 3215 3215 3215 3215 3215 3223 3215 3206 3206 3189 3180 3105 0 2965 0 2817 2751 2732 2701 2676 2658 2647 2629 2629 2629 2647 2647 2658 2676 2689 2701 2713 2726 2738 2745 2758 2790 2837 2885 2928 2950 2972 2980 2995 3003 3003 3003 3003 2995 2995 2995 3003 3010 3018 3026 3049 3073 3097 3121 3130 3146 3155 3163 3172 3180 3180 3180 3189 3189 3189 3189 3180 3180 3189 3197 3197 3197 3197 3197 3206 3206 3206 3206 3206 3206 3206 3206 3206 3206 3197 3189 3189 3172 3163 3146 3130 3121 3097 3097 3089 3073 3065 3049 3041 3041 3026 3026 3026 3026 3026 0 0 0 0 0 0 0 0 0 0 0 0 0 0 0 0 0 0 3172 3073 3026 3018 3018 3018 3010 3010 3010 3026 3041 3049 3073 3073 3073 3073 3073 3065 3049 3049 3049 3065 3049 3049 3049 3041 3041 3041 3026 3026 3026 3026 3026 3041 3041 3041 3049 3065 3065 3073 3089 3097 3121 3130 3155 3163 3180 3189 3197 3197 3197 3197 3197 3197 3180 3163 3146 3121 3097 3073 3065 3049 3018 3010 3003 2995 2995 2987 2980 2972 2972 2972 2972 2972 2972 2972 2972 2972 2972 2972 2965 2965 2958 2958 2958 2958 2958 2958 2958 2958 2965 2972 2980 2980 2995 3003 3003 3018 3018 3026 3026 3018 3010 2995 2980 2958 2950 2936 2914 2900 2878 2858 2837 2830 2810 2790 2777 2758 2738 2707 2647 2594 2561 2539 2496 2459 2424 2409 2400 2395 2385 2380 2371 2357 2333 2306 2275 2253 2241 2232 2220 2199 2183 2159 2143 2132 2124 2113 2105 2098 2083 2065 2050 2036 2026 2012 2005 1995 1982 1949 1911 1893 1863 1823 1809 1798 1790 1790 1792 1803 1823 1857 1890 1911 1949 1982 1995 1998 1998 1995 1995 1995 1992 1992 1985 1985 1982 1978 1975 1972 1972 1965 1965 1962 1955 1955 1955 1952 1952 1949 1943 1949 1943 1943 1943 1939 1939 1939 1933 1933 1930 1924 1924 1920 1917 1914 1911 1908 1905 1905 1902 1902 1899 1896 1890 1875 1846 1817 1803 1790 1758 1735 1725 1719 1715 1712 1707 1705 1700 1695 1688 1683 1676 1664 1659 1657 1655 1652 1650 1650 1648 1648 1648 1648 1648 1648 1648 1648 1648 1648 1648 1648 1650 1648 1650 1650 1650 1650 1650 1648 1648 1648 1648 1645 1643 1643 1643 1641 1641 1641 1639 1639 1636 1636 1634 1634 1632 1632 1632 1629 1629 1627 1627 1625 1625 0 0 0 0 0 0 0 0 0 0 0 0 0 0 0 0 0 0 0 0
0 0 0 0 0 0 0 0 0 0 0 0 0 0 0 0 0 0 0 0 0 0 0 0 0 0 0 0 1610 1618 1625 1629 1632 1636 1641 1643 1645 1648 1648 1648 1645 1643 1643 1641 1639 1634 1629 1625 1618 1612 1605 1603 1599 1597 1592 1597 1599 1603 1605 1612 1618 1627 1632 1639 1641 1645 1650 1657 1669 1683 1695 1705 1715 1717 1722 1727 1732 1740 1750 1763 1774 1784 1792 1798 1801 1803 1806 1812 1814 1823 1834 1846 1863 1890 1908 1949 1988 2009 2057 2101 2120 2139 2147 2167 2171 2179 2183 2183 2187 2195 2232 2253 2293 2361 2395 2454 2539 2572 2658 2689 2707 2720 2732 2738 2745 2751 2764 2777 2790 2810 2851 2878 2907 2928 2943 2950 2958 2958 2965 2965 2958 2950 2921 2885 2851 2817 2784 2758 2751 2745 2738 2738 2738 2738 2738 2751 2758 2764 2784 2784 2797 2810 2837 0 0 0 0 0 2135 2120 2120 2116 2113 2109 2109 2105 2105 2101 2098 2098 0 0 3250 3241 3241 3241 3241 3241 3241 3232 3232 3223 3223 3215 3215 3215 3215 3206 3206 3206 3206 3206 3206 3206 3197 3189 3172 3155 3065 2980 2943 0 2777 2738 2720 2689 2670 2658 2647 2635 2629 2629 2635 2647 2658 2670 2676 2695 2707 2720 2732 2738 2751 2771 2797 2851 2885 2928 2943 2958 2965 2972 2972 2972 2972 2972 2972 2980 2980 2995 3010 3018 3049 3073 3097 3121 3130 3130 3155 3163 3172 3172 3172 3172 3172 3180 3180 3180 3180 3180 3180 3189 3189 3189 3197 3189 3197 3197 3197 3197 3197 3197 3197 3197 3197 3189 3180 3172 3163 3146 3130 3105 3089 3089 3065 3049 3049 3041 3026 3018 3018 3018 3010 3010 3010 3010 0 0 0 0 0 0 0 0 0 0 0 0 0 0 0 0 0 0 0 0 0 2987 2987 2987 2987 2987 2987 2995 3003 3018 3026 3026 3041 3041 3041 3026 3026 3018 3018 3018 3018 3018 3018 3010 3010 3018 3018 3010 3010 3003 3010 3010 3010 3010 3018 3026 3026 3041 3041 3065 3073 3089 3097 3121 3130 3146 3155 3172 3172 3163 3163 3172 3163 3155 3121 3097 3065 3041 3026 3018 3003 2987 2980 2980 2972 2972 2972 2965 2958 2958 2958 2958 2958 2958 2958 2958 2950 2950 2958 2950 2950 2950 2943 2943 2943 2943 2936 2936 2943 2943 2950 2950 2958 2958 2965 2972 2972 2972 2987 2987 2987 2987 2980 2972 2965 2950 2943 2914 2900 2878 2858 2837 2830 2810 2790 2771 2758 2738 2707 2652 2600 2561 2539 2496 2439 2400 2395 2385 2376 2357 2333 2306 2288 2271 2253 2241 2232 2224 2207 2187 2171 2155 2139 2128 2120 2116 2109 2101 2090 2075 2061 2047 2036 2022 2009 2002 1992 1975 1943 1905 1890 1857 1823 1809 1798 1792 1790 1795 1801 1820 1854 1890 1905 1939 1972 1988 1992 1992 1992 1988 1988 1982 1978 1972 1965 1955 1952 1949 1943 1939 1933 1933 1930 1930 1930 1924 1924 1920 1924 1920 1924 1920 1924 1930 1924 1930 1924 1924 1924 1920 1920 1917 1917 1914 1911 1908 1905 1905 1902 1902 1899 1896 1893 1887 1875 1846 1817 1803 1790 1763 1737 1727 1719 1717 1712 1707 1705 1700 1695 1688 1683 1676 1664 1659 1657 1655 1655 1652 1650 1650 1648 1650 1650 1650 1650 1648 1648 1648 1648 1648 1648 1648 1648 1650 1650 1650 1650 1650 1650 1648 1648 1648 1648 1648 1645 1643 1643 1641 1641 1641 1639 1639 1639 1636 1636 1634 1636 1634 1634 1632 1632 1632 1629 1629 0 0 0 0 0 0 0 0 0 0 0 0 0 0 0 0 0 0 0 0
0 0 0 0 0 0 0 0 0 0 0 0 0 0 0 0 0 0 0 0 0 0 0 0 0 1605 0 0 1605 1610 1612 1614 1621 1625 1629 1634 1639 1641 1641 1641 1641 1639 1639 1636 1632 1629 1625 1618 1612 1610 1603 1599 1597 1592 1592 1597 1599 1603 1605 1614 1621 1629 1634 1639 1643 1645 1650 1657 1669 1683 1695 1705 1715 1717 1719 1725 1732 1737 1750 1763 1774 1787 1798 1801 1803 1809 1812 1820 1828 1843 1854 1866 1884 1899 1924 1972 2002 2036 2094 2120 2147 2183 2199 2211 2211 2211 2211 2211 2211 2211 2236 2253 2302 2361 2395 2454 2539 2577 2676 2701 2720 2726 2738 2745 2751 2758 2771 2784 2797 2817 2851 2878 2885 2914 2928 2943 2943 2950 2950 2950 2943 2936 2907 2864 2837 2810 2784 2758 2751 2745 2738 2732 2732 2732 2738 2738 2751 2758 2771 2771 2777 2790 0 0 0 0 0 0 2179 2132 2120 2120 2113 2109 2109 2105 2105 2101 2101 2101 2094 0 3259 3250 3250 3241 3241 3241 3241 3232 3232 3223 3223 3215 3215 3206 3206 3206 3206 3197 3197 3197 3206 3197 3189 3180 3146 3146 3041 2972 2928 0 2771 2738 2713 2676 2670 2658 2652 2635 2629 2635 2635 2647 2652 2658 2670 2689 2701 2713 2726 2732 2745 2758 2777 2810 2837 2878 2907 2928 2943 2943 2950 2950 2950 2958 2958 2965 2972 2980 2987 3003 3018 3041 3065 3089 3105 3121 3130 3146 3155 3155 3155 3155 3155 3163 3172 3163 3163 3163 3163 3163 3172 3172 3172 3163 3163 3172 3163 3163 3163 3163 3163 3155 3155 3155 3146 3130 3105 3097 3073 3065 3049 3041 3026 3018 3010 3003 3003 2995 2987 2995 2987 2987 2987 2980 0 0 0 0 0 0 0 0 0 0 0 0 0 0 0 0 0 0 0 0 0 2958 2965 2972 2972 2972 2972 2972 2980 2987 2995 3003 2995 3003 3003 2995 2995 2987 2987 2995 2995 2987 2987 2987 2987 2987 2987 2987 2980 2980 2980 2980 2980 2980 2987 2987 2995 2995 3010 3018 3026 3041 3065 3073 3089 3105 3121 3130 3146 3146 3130 3146 3130 3105 3073 3041 3018 3010 3003 2987 2980 2972 2965 2965 2958 2958 2958 2950 2950 2950 2950 2950 2950 2950 2950 2950 2950 2950 2950 2943 2943 2936 2928 2928 2921 2921 2907 2907 2900 2907 2914 2914 2914 2928 2936 2936 2943 2943 2950 2958 2958 2965 2958 2958 2958 2950 2928 2907 2885 2858 2851 2830 2810 2790 2777 2764 2751 2732 2707 2647 2583 2550 2512 2444 2400 2380 2361 2338 2315 2288 2266 2253 2245 2236 2232 2215 2195 2179 2159 2147 2139 2132 2124 2120 2113 2109 2105 2094 2083 2065 2057 2040 2026 2015 2005 1998 1985 1955 1924 1902 1884 1851 1817 1806 1798 1792 1792 1798 1803 1823 1857 0 1905 1933 1962 1978 1982 1982 1978 1978 1972 1965 1955 1952 1943 1939 1930 1930 1920 1917 1917 1914 1911 1911 1911 1908 1908 1908 1908 1911 1908 1911 1914 1917 1917 1920 1920 1920 1920 1917 1917 1917 1914 1911 1908 1905 1905 1902 1902 1899 1896 1893 1893 1884 1866 1843 1817 1803 1792 1766 1740 1727 1719 1717 1712 1707 1705 1700 1692 1688 1683 1676 1664 1659 1657 1655 1655 1652 1650 1650 1650 1650 1650 1650 1650 1650 1648 1648 1648 1648 1648 1648 1648 1650 1650 1650 1650 1650 1650 1650 1650 1650 1648 1648 1648 1645 1643 1643 1643 1641 1641 1639 1639 1639 1639 1636 1639 1636 1636 1634 1634 1634 1632 1634 0 0 0 0 0 0 0 0 0 0 0 0 0 0 0 0 0 0 0 0
0 0 0 0 0 0 0 0 0 0 0 0 0 0 0 0 0 0 0 0 0 0 0 0 1605 1605 1603 1599 1599 1599 1603 1605 1605 1610 1614 1621 1627 1632 1632 1634 1634 1634 1632 1629 1627 1625 1618 1614 1610 1603 1599 1597 1592 1592 1592 1592 1599 1603 1610 1614 1621 1629 1634 1639 1643 1648 1652 1659 1671 1683 1695 1705 1712 1717 1719 1727 1732 1740 1755 1766 1782 1795 1801 1809 1812 1817 1826 1843 1854 1866 1878 1887 1893 1908 1943 1985 2009 2057 2105 2135 2195 2220 2228 2232 2232 2232 2232 2228 2224 2224 2241 2258 2306 2361 2395 2459 2539 2589 2695 2720 2726 2732 2745 2751 2758 2764 2777 2790 2797 2817 2837 2858 2878 2900 2914 2921 2928 2928 2943 2943 2928 2914 2878 2851 2830 2797 2777 2758 2751 2738 2732 2732 2732 2732 2732 2738 2745 2751 2758 2758 2764 2771 2777 2784 0 0 0 0 2232 2167 2120 2116 2116 2109 2109 2105 2105 2101 2101 2094 2094 0 3268 3259 3250 3250 3241 3241 3241 3232 3232 3215 3215 3206 3206 3206 3197 3197 3197 3197 3189 3189 3189 3189 3172 3155 3121 3105 3018 2965 2921 0 2771 2738 2720 2689 2676 2670 2652 2647 2635 2635 2635 2635 2652 2652 2670 2676 2695 2707 2720 2732 2738 2751 2758 2777 2797 2837 2858 2878 2900 2914 2921 2928 2936 2936 2943 2950 2958 2965 2972 2980 2995 3018 3049 3073 3089 3097 3105 3121 3130 3130 3130 3130 3130 3146 3146 3146 3146 3130 3146 3130 3146 3130 3130 3130 3130 3121 3121 3121 3105 3105 3105 3105 3097 3097 3089 3073 3065 3041 3026 3018 3010 3003 2995 2987 2987 2980 2980 2980 2980 2972 2972 2972 2972 2972 0 0 0 0 0 0 0 0 0 0 0 0 0 0 0 0 0 0 0 0 0 0 2943 2943 2950 2950 2950 2950 2958 2958 2965 2972 2972 2972 2972 2972 2972 2972 2972 2972 2972 2972 2972 2972 2972 2972 2972 2972 2965 2965 2965 2965 2958 2958 2958 2965 2965 2972 2972 2972 2980 2987 2995 3003 3018 3026 3026 3041 3041 3026 3026 3018 3010 3003 2980 2972 2965 2958 2958 2950 2943 2943 2936 2936 2928 2928 2928 2921 2921 2914 2921 2921 2921 2921 2921 2921 2921 2921 2921 2921 2907 2907 2900 2885 2885 2878 2878 2864 2864 2864 2864 2864 2878 2885 2900 2907 2907 2914 2928 2936 2943 0 0 2943 2936 2928 2914 2878 2858 2837 2817 2810 2790 2777 2764 2758 2751 2732 2701 2629 2566 2533 2459 2400 2376 2333 2302 2271 2253 2245 2236 2224 2211 2195 2179 0 0 2132 2124 2120 2116 2113 2109 2105 2105 2098 2090 2075 2061 2050 2036 2026 2015 2005 1998 1988 1972 1939 0 1893 1875 1843 1812 1803 1798 1792 1795 1798 1809 1826 1863 1890 1905 1930 1952 1972 1972 1972 1965 1962 1955 1952 1949 1939 1930 1920 1917 1914 1911 1905 1905 1905 1902 1902 1902 1902 1902 1902 1902 1902 1905 1905 1905 1911 1911 1914 1917 1917 1917 1917 1917 1917 1914 1911 1908 1905 1905 1902 1899 1896 1896 1893 1890 1881 1866 1837 1814 1803 1792 1766 1740 1727 1719 1717 1715 1710 1705 1700 1692 1688 1683 1676 1664 1659 1657 1655 1655 1652 1650 1650 1650 1650 1650 1650 1650 1650 1648 1648 1648 1648 1648 1648 1648 1648 1648 1648 1650 1650 1650 1650 1650 1650 1650 1648 1648 1648 1645 1643 1643 1641 1641 1641 1639 1639 1639 1639 1639 1639 1639 1636 1636 1636 1634 1634 0 0 0 0 0 0 0 0 0 0 0 0 0 0 0 0 0 0 0 0
