0 0 0 0 0 0 0 0 0 0 0 0 0 0 0 0 0 0 0 3419 3409 3419 3419 3419 3419 3409 3419 3419 3419 3439 3439 3439 3439 3439 3439 3439 3439 3439 3439 3439 3419 3419 3419 3419 3419 3409 3409 3409 3409 3409 3409 3409 3409 3409 3409 3419 3419 3419 3439 3439 3439 3439 3439 3439 3449 3449 3449 3449 3449 3449 3449 3439 3439 3439 3439 3439 3439 3439 3419 3419 3419 3419 3419 3419 3419 3419 3409 3409 3409 3409 3390 3390 3380 3380 3380 3380 3370 3370 3370 3370 3370 3380 3380 3380 3380 3390 3409 3409 3419 3419 3439 3439 3439 3439 3439 3439 3419 3419 3409 3409 3409 3390 3390 3390 3390 3380 3380 3370 3370 3370 3370 3370 3370 3370 3380 3390 3390 3390 3409 3409 3409 3409 3409 3409 3409 3409 3409 3409 3409 3390 3390 3390 3380 3380 3370 3370 3370 3370 3370 3370 3370 3370 3370 3370 3380 3380 3390 3390 3409 0 0 0 0 0 0 0 0 0 0 0 0 0 0 0 0 0 0 0 0 0 0 0 0 0 0 1009 1009 1009 1009 1009 1009 1009 1009 1008 1008 1008 1008 1009 1009 1011 1011 1012 1015 1015 1017 1018 1019 1022 0 3323 3323 3323 3323 3323 3342 3342 3323 3323 3323 3314 3314 3295 3295 3286 3286 3277 3277 3268 3259 3259 3259 3259 3268 3277 3286 3295 3295 3295 3314 3323 3323 3314 3314 3295 3295 3295 3295 3295 3295 3286 3286 3295 3295 3314 3314 3314 3323 3323 3323 3323 3323 3323 3323 3323 3314 3314 3295 3295 3286 3286 3277 3277 3277 3277 3277 3277 3277 3277 3277 3277 3277 3277 3277 3277 3268 3268 3277 3277 3277 3268 3268 3268 3268 3268 3259 3259 3259 3259 3259 3259 3259 3259 3268 3268 3277 3277 3286 3286 3295 3295 3295 3314 3314 3295 3286 3277 3268 3259 3250 3241 3232 3232 3223 3215 3215 3206 3206 3206 3206 3206 3206 3206 3206 3206 3206 3206 3206 3206 3206 3206 3206 3215 3215 3215 3215 3223 3223 3223 3223 3232 3232 3241 3241 3241 3241 3241 3232 3232 3223 3215 3206 3206 3197 3197 3197 3189 3189 3189 3189 3189 3189 3189 3180 3180 3180 3180 3180 3180 3189 3189 3189 3197 3197 3197 3197 3197 3197 3197 3197 3197 3197 3197 3197 3189 3189 3189 3189 3189 3197 3197 3197 3197 3197 3197 3197 3197 3197 3197 3197 3197 3197 3197 3197 3197 3197 3197 3189 3189 3189 3180 3180 3180 3189 3189 3197 3197 3197 3197 3206 3206 3206 3206 3206 3206 3206 3206 3206 3206 3206 3206 3197 3197 3197 3197 3197 3197 3197 3197 3189 3189 3180 3180 3172 3172 3172 3172 3172 3172 3172 3172 3172 3172 3172 3172 3163 3163 3163 3163 3146 3130 3121 3121 3105 3097 3089 3073 3073 3073 3073 3073 3089 3089 3089 3089 3089 3089 3089 3089 3073 3073 3073 3065 3049 3041 3041 3041 3041 3026 3026 3026 3041 3041 3041 3049 3065 3073 3097 3121 3130 3146 3163 3172 3172 3180 3180 3180 3180 3180 3180 3172 3163 3155 3146 3130 3121 3097 3089 3065 3049 3041 3041 3026 3026 3026 3041 3041 3049 3065 3073 3073 3097 3105 3105 3121 3121 3121 3121 3105 3105 3097 3089 3073 3073 3073 3073 3073 3089 3089 3089 3097 3097 3097 3097 3097 3089 3089 3073 3073 3065 3049 3041 3018 3010 3003 2995 2987 2980 2980 2972 2972 2965 2965 2958 2958 2958 2950 2950 2950 2950 2950 2950 2950 2950 2950 2958 2958 2958 2958 2958 2965 2965 2965 2965 2958 2958 2958 2958 2965 2965 2965 2965 2965 2972 2972 2972 2980 2987 2995 3003 3010 3026 3041 3049 3065 3073 3073 3089 3089 3089 3089
0 0 0 0 0 0 0 0 0 0 0 0 0 0 0 0 0 0 0 3439 3439 3439 3439 3439 3449 3439 3439 3439 3449 3449 3449 3459 3459 3459 3469 3469 3469 3469 3469 3459 3459 3459 3459 3449 3449 3449 3449 3449 3439 3439 3439 3439 3439 3439 3449 3449 3449 3449 3459 3459 3459 3459 3459 3459 3469 3469 3469 3469 3469 3469 3469 3469 3469 3459 3459 3459 3459 3459 3459 3459 3459 3449 3449 3449 3449 3449 3449 3449 3449 3439 3439 3439 3419 3419 3419 3419 3409 3409 3409 3409 3409 3409 3419 3419 3419 3439 3439 3449 3449 3459 3459 3469 3469 3459 3459 3459 3459 3449 3449 3439 3439 3439 3439 3419 3419 3419 3409 3409 3390 3390 3390 3390 3390 3409 3409 3409 3419 3419 3419 3419 3419 3419 3419 3419 3419 3419 3409 3409 3409 3409 3390 3390 3390 3380 3380 3370 3370 3370 3370 3370 3370 3370 3370 3380 3380 3390 3390 3390 3390 3409 0 0 0 0 0 0 0 0 0 0 0 0 0 0 0 0 0 0 0 0 0 0 0 0 0 0 1010 1010 1010 1009 1009 1009 1009 1009 1008 1008 1008 1009 1009 1010 1011 1012 1014 1015 1017 1019 1019 1022 0 3342 3342 3351 3351 3351 3351 3351 3351 3351 3351 3342 3342 3342 3342 3323 3314 3314 3295 3295 3286 3286 3277 3286 3286 3295 3314 3323 3323 3323 3342 3342 3342 3342 3323 3323 3323 3323 3314 3314 3314 3314 3314 3323 3323 3342 3342 3342 3342 3351 3351 3351 3351 3351 3351 3342 3342 3323 3323 3314 3314 3314 3295 3295 3295 3295 3295 3295 3295 3295 3295 3295 3295 3295 3295 3286 3286 3286 3286 3286 3286 3286 3286 3286 3277 3277 3277 3268 3268 3268 3277 3277 3277 3286 3286 3286 3295 3314 3314 3323 3323 3342 3342 3342 3342 3323 3314 3295 3277 3268 3259 3250 3241 3241 3232 3232 3223 3215 3215 3215 3215 3215 3215 3215 3215 3215 3215 3215 3215 3215 3215 3215 3215 3223 3223 3223 3232 3232 3241 3241 3241 3241 3250 3250 3259 3259 3250 3241 3241 3241 3232 3215 3215 3206 3206 3197 3197 3197 3197 3197 3197 3189 3197 3197 3189 3189 3189 3189 3189 3197 3197 3197 3197 3197 3197 3197 3197 3197 3197 3197 3197 3197 3197 3197 3197 3197 3197 3197 3197 3197 3197 3197 3197 3206 3206 3206 3206 3206 3206 3206 3206 3206 3206 3206 3206 3206 3206 3206 3206 3197 3197 3197 3197 3197 3197 3206 3206 3206 3215 3215 3215 3215 3215 3215 3215 3215 3215 3215 3206 3206 3206 3206 3206 3197 3197 3197 3197 3197 3197 3197 3197 3197 3189 3189 3180 3180 3180 3180 3180 3180 3180 3180 3180 3180 3180 3180 3172 3172 3172 3163 3155 3146 3146 3130 3121 3121 3105 3097 3097 3097 3097 3105 3105 3105 3105 3105 3121 3121 3121 3105 3105 3097 3097 3097 3089 3073 3073 3065 3065 3065 3065 3065 3065 3073 3073 3089 3097 3121 3130 3146 3155 3172 3180 3189 3189 3189 3189 3180 3180 3180 3172 3172 3163 3155 3155 3146 3130 3121 3105 3097 3089 3073 3073 3065 3065 3073 3073 3089 3089 3097 3105 3121 3130 3130 3146 3146 3155 3155 3155 3146 3130 3121 3105 3105 3097 3089 3089 3089 3089 3097 3097 3097 3097 3105 3105 3105 3097 3097 3089 3089 3073 3065 3049 3026 3018 3003 2995 2987 2980 2980 2972 2972 2972 2965 2958 2958 2950 2950 2950 2950 2950 2950 2950 2950 2950 2950 2958 2958 2958 2958 2965 2965 2965 2965 2972 2972 2972 2972 2972 2972 2972 2972 2972 2972 2980 2980 2980 2995 3003 3010 3018 3041 3049 3073 3089 3097 3097 3105 3105 3121 3121 3121
0 0 0 0 0 0 0 0 0 0 0 0 0 0 0 0 0 0 0 3449 3459 3459 3459 3459 3459 3459 3469 3469 3469 3479 3479 3479 3490 3490 3490 3490 3490 3490 3490 3490 3490 3490 3479 3479 3479 3479 3469 3469 3469 3469 3469 3469 3469 3469 3469 3469 3469 3479 3479 3479 3479 3479 3479 3479 3479 3490 3490 3490 3490 3490 3490 3490 3490 3490 3490 3479 3479 3479 3479 3479 3479 3479 3479 3479 3479 3479 3479 3469 3469 3469 3469 3459 3459 3459 3449 3449 3449 3439 3449 3449 3449 3449 3449 3449 3459 3469 3469 3469 3479 3490 3490 3490 3490 3490 3490 3490 3479 3479 3469 3469 3459 3459 3459 3459 3449 3449 3439 3439 3439 3439 3419 3419 3419 3439 3439 3439 3439 3439 3439 3439 3439 3439 3439 3439 3419 3419 3419 3419 3419 3409 3390 3390 3390 3390 3380 3380 3370 3370 3370 3380 3370 3370 3370 3380 3380 3390 3390 3390 3409 3390 0 0 0 0 0 0 0 0 0 0 0 0 0 0 0 0 0 0 0 0 0 0 0 0 0 0 1011 1011 1011 1011 1011 1011 1009 1009 1008 1008 1008 1008 1009 1010 1011 1012 1014 1015 1017 1019 1020 1022 0 3370 3370 3370 3370 3370 3380 3380 3380 3380 3380 3380 3380 3370 3370 3351 3351 3342 3342 3323 3323 3323 3314 3314 3323 3342 3342 3351 3351 3351 3351 3370 3370 3351 3351 3342 3342 3342 3342 3342 3342 3342 3342 3351 3351 3351 3370 3370 3370 3380 3380 3380 3380 3380 3370 3370 3351 3351 3342 3342 3342 3342 3323 3323 3323 3323 3323 3323 3323 3323 3323 3323 3323 3323 3323 3314 3314 3314 3314 3314 3314 3314 3295 3295 3295 3295 3286 3286 3286 3286 3286 3295 3295 3314 3314 3314 3323 3342 3342 3351 3351 3370 3370 3370 3351 3351 3342 3314 3295 3286 3277 3259 3250 3250 3241 3241 3241 3232 3232 3232 3232 3232 3232 3223 3223 3232 3223 3223 3223 3223 3232 3232 3232 3232 3232 3241 3241 3241 3250 3250 3259 3268 3277 3277 3277 3277 3268 3259 3259 3241 3241 3232 3223 3215 3206 3206 3197 3197 3197 3197 3197 3189 3197 3197 3197 3197 3197 3197 3197 3197 3197 3197 3197 3206 3206 3206 3206 3206 3197 3197 3197 3197 3197 3197 3197 3197 3197 3197 3197 3197 3197 3206 3206 3206 3206 3215 3215 3215 3215 3215 3215 3215 3215 3215 3215 3215 3215 3215 3215 3206 3206 3206 3206 3215 3215 3215 3223 3223 3232 3232 3232 3232 3232 3223 3223 3215 3215 3215 3215 3215 3206 3206 3206 3206 3206 3206 3206 3206 3206 3197 3197 3197 3197 3197 3189 3189 3189 3189 3189 3189 3189 3189 3189 3189 3180 3180 3180 3172 3172 3172 3163 3155 3155 3146 3146 3146 3130 3130 3121 3121 3121 3130 3130 3130 3130 3130 3146 3146 3146 3146 3130 3130 3130 3121 3105 3105 3097 3097 3097 3097 3089 3097 3097 3097 3105 3121 3130 3146 3163 3172 3180 3180 3189 3197 3197 3189 3189 3189 3180 3180 3172 3172 3163 3163 3155 3155 3146 3130 3121 3105 3105 3097 3097 3089 3089 3097 3097 3097 3105 3121 3130 3130 3146 3155 3163 3163 3172 3163 3163 3163 3155 3130 3130 3105 3105 3105 3097 3097 3097 3097 3097 3105 3105 3105 3105 3121 3105 3105 3105 3097 3089 3073 3049 3041 3026 3010 3003 2987 2980 2980 2980 2972 2972 2972 2965 2958 2958 2950 2950 2950 2950 2950 2950 2950 2950 2958 2958 2958 2958 2965 2965 2965 2972 2972 2972 2972 2972 2972 2972 2972 2980 2980 2980 2980 2987 2995 3003 3010 3018 3026 3049 3065 3089 3097 3105 3121 3130 3130 3146 3146 3146 3146
0 0 0 0 0 0 0 0 0 0 0 0 0 0 0 0 0 0 0 3469 3469 3469 3469 3479 3479 3479 3490 3490 3490 3500 3500 3500 3500 3500 3510 3510 3510 3510 3510 3500 3500 3500 3500 3500 3500 3500 3500 3500 3500 3490 3490 3490 3490 3490 3490 3490 3490 3490 3500 3500 3500 3500 3500 3500 3500 3500 3500 3500 3500 3500 3500 3500 3500 3500 3500 3500 3500 3500 3500 3500 3500 3500 3500 3500 3500 3500 3500 3500 3500 3490 3490 3490 3490 3479 3469 3469 3469 3469 3469 3469 3469 3469 3479 3479 3479 3490 3500 3500 3500 3500 3510 3510 3510 3510 3500 3500 3500 3500 3500 3500 3490 3490 3479 3479 3479 3479 3469 3469 3459 3459 3449 3449 3449 3459 3459 3459 3449 3449 3449 3449 3449 3449 3439 3439 3439 3419 3419 3419 3419 3409 3409 3390 3380 3380 3380 3370 3370 3370 3370 3370 3370 3370 3370 3370 3370 3380 3380 3380 3380 0 0 0 0 0 0 0 0 0 0 0 0 0 0 0 0 0 0 0 0 0 0 0 0 0 0 0 1012 1012 1012 1012 1012 1011 1011 1010 1009 1008 1008 1008 1009 1009 1011 1012 1014 1015 1017 1019 1020 1022 0 3390 3390 3390 3390 3390 3390 3390 3390 3390 3409 3409 3409 3390 3390 3380 3380 3380 3370 3370 3351 3351 3351 3351 3370 3380 3380 3380 3380 3380 3380 3380 3380 3380 3370 3351 3351 3351 3351 3370 3370 3370 3370 3380 3380 3380 3390 3390 3409 3409 3409 3409 3390 3390 3390 3390 3380 3370 3370 3370 3370 3370 3351 3351 3351 3351 3351 3351 3351 3351 3351 3351 3351 3351 3351 3342 3342 3342 3342 3342 3323 3323 3314 3314 3314 3314 3314 3314 3314 3314 3314 3314 3323 3323 3342 3342 3351 3351 3370 3380 3380 3390 3390 3380 3380 3370 3351 3342 3323 3314 3295 3286 3277 3277 3268 3259 3259 3250 3250 3241 3241 3241 3241 3232 3232 3232 3241 3241 3232 3232 3241 3241 3241 3241 3250 3250 3259 3268 3277 3277 3286 3286 3295 3295 3295 3295 3286 3277 3268 3259 3241 3232 3232 3223 3215 3215 3206 3206 3197 3197 3197 3197 3197 3197 3189 3189 3197 3197 3197 3197 3197 3197 3197 3197 3197 3197 3197 3197 3197 3197 3197 3197 3197 3197 3197 3197 3197 3197 3197 3197 3206 3206 3206 3206 3215 3215 3215 3215 3215 3215 3215 3215 3223 3215 3215 3215 3215 3215 3215 3215 3215 3215 3215 3223 3232 3232 3232 3241 3241 3241 3241 3241 3232 3232 3232 3223 3215 3215 3215 3215 3206 3206 3206 3206 3206 3206 3206 3206 3206 3206 3206 3206 3206 3197 3197 3197 3197 3197 3189 3189 3189 3189 3189 3189 3189 3189 3180 3180 3180 3172 3172 3163 3163 3163 3163 3155 3155 3155 3146 3146 3155 3155 3163 3163 3163 3163 3163 3163 3163 3163 3163 3155 3155 3155 3130 3130 3130 3130 3121 3121 3121 3130 3130 3146 3146 3155 3163 3172 3180 3189 3197 3197 3197 3197 3197 3197 3197 3189 3180 3172 3172 3172 3163 3163 3163 3155 3146 3146 3130 3130 3121 3121 3121 3105 3105 3121 3121 3121 3130 3146 3146 3155 3163 3172 3172 3180 3180 3180 3172 3172 3163 3155 3146 3130 3130 3121 3121 3105 3105 3105 3121 3121 3121 3121 3121 3130 3130 3121 3121 3105 3097 3089 3073 3049 3026 3018 3010 2995 2987 2980 2980 2980 2972 2972 2972 2965 2958 2958 2958 2958 2950 2950 2950 2958 2958 2958 2958 2958 2958 2965 2972 2972 2972 2972 2980 2980 2980 2980 2980 2980 2987 2987 2995 3003 3010 3018 3018 3026 3041 3065 3073 3097 3105 3121 3130 3146 3155 3155 3163 3163 3163 3172
0 0 0 0 0 0 0 0 0 0 0 0 0 0 0 0 0 0 0 0 3490 3490 3490 3500 3500 3500 3500 3510 3510 3510 3510 3521 3521 3521 3521 3521 3521 3521 3521 3521 3521 3521 3510 3510 3510 3510 3510 3510 3510 3510 3510 3500 3500 3500 3500 3500 3500 3500 3500 3500 3500 3500 3500 3500 3510 3510 3510 3510 3510 3510 3510 3510 3510 3510 3510 3510 3510 3510 3510 3510 3510 3510 3510 3510 3510 3510 3510 3510 3510 3510 3500 3500 3500 3500 3500 3500 3490 3490 3490 3490 3490 3490 3500 3500 3500 3500 3510 3510 3510 3510 3521 3521 3521 3521 3521 3521 3521 3510 3510 3510 3510 3500 3500 3500 3500 3500 3490 3490 3490 3479 3479 3479 3479 3479 3469 3469 3469 3469 3459 3459 3459 3449 3449 3449 3449 3439 3439 3419 3419 3409 3390 3390 3390 3380 3370 3370 3370 3370 3370 3370 3370 3370 3370 3351 3351 3351 3351 3342 3342 0 0 0 0 0 0 0 0 0 0 0 0 0 0 0 0 0 0 0 0 0 0 0 0 0 0 0 1014 1013 1013 1013 1012 1012 1011 1011 1009 1009 1008 1008 1009 1009 1011 1012 1014 1015 1017 1019 1020 1022 0 3390 3409 3409 3409 3409 3409 3409 3419 3419 3439 3439 3419 3419 3419 3419 3419 3419 3409 3409 3390 3390 3390 3390 3390 3409 3409 3409 3409 3409 3409 3409 3409 3390 3390 3380 3380 3380 3380 3390 3390 3390 3390 3409 3409 3409 3419 3419 3419 3419 3419 3419 3419 3419 3419 3409 3409 3390 3390 3390 3390 3380 3380 3380 3380 3380 3380 3380 3380 3380 3380 3380 3380 3380 3380 3370 3370 3351 3351 3351 3351 3342 3342 3323 3323 3323 3323 3323 3323 3323 3323 3342 3342 3351 3351 3370 3370 3380 3390 3390 3409 3409 3409 3409 3390 3390 3380 3370 3342 3323 3314 3295 3295 3286 3286 3277 3277 3277 3268 3268 3259 3259 3259 3250 3250 3259 3250 3250 3259 3259 3268 3268 3268 3277 3277 3286 3295 3295 3314 3314 3323 3323 3342 3342 3342 3323 3314 3295 3286 3268 3259 3241 3241 3232 3223 3223 3215 3215 3215 3206 3206 3206 3206 3197 3197 3197 3197 3197 3197 3206 3206 3206 3206 3206 3206 3206 3197 3197 3197 3197 3197 3197 3197 3197 3197 3197 3197 3197 3206 3206 3206 3206 3215 3215 3215 3223 3223 3223 3223 3223 3223 3232 3232 3232 3223 3223 3223 3232 3232 3232 3232 3232 3232 3241 3241 3250 3250 3259 3259 3259 3250 3250 3241 3241 3232 3232 3223 3215 3215 3215 3215 3206 3206 3215 3215 3206 3215 3215 3215 3215 3215 3215 3206 3206 3206 3206 3197 3197 3197 3197 3197 3197 3197 3197 3189 3189 3189 3189 3189 3180 3180 3180 3180 3172 3172 3172 3172 3172 3172 3172 3172 3172 3180 3180 3180 3180 3180 3180 3180 3180 3180 3180 3172 3172 3163 3163 3155 3155 3155 3155 3155 3163 3163 3172 3172 3180 3189 3197 3197 3197 3197 3197 3197 3197 3197 3197 3189 3189 3180 3172 3172 3172 3172 3163 3163 3163 3155 3155 3146 3146 3146 3146 3130 3130 3130 3130 3146 3146 3155 3155 3163 3172 3172 3180 3180 3189 3189 3189 3180 3180 3172 3163 3155 3146 3130 3130 3130 3130 3130 3130 3130 3130 3146 3146 3146 3146 3146 3130 3130 3121 3105 3097 3089 3065 3049 3026 3018 3010 3003 2995 2987 2987 2980 2980 2972 2972 2972 2965 2965 2965 2958 2958 2958 2958 2958 2958 2965 2965 2965 2972 2972 2972 2980 2980 2980 2980 2987 2987 2995 3003 3003 3010 3018 3026 3041 3041 3049 3065 3073 3089 3105 3121 3130 3146 3155 3163 3172 3180 3180 3189 3189 3189
0 0 0 0 0 0 0 0 0 0 0 0 0 0 0 0 0 0 0 0 3500 3500 3510 3510 3510 3510 3521 3521 3521 3531 3531 3542 3542 3542 3542 3542 3542 3542 3542 3542 3542 3542 3531 3531 3531 3521 3521 3521 3521 3521 3521 3521 3510 3510 3510 3510 3510 3510 3510 3510 3510 3510 3510 3510 3510 3510 3510 3510 3510 3510 3510 3510 3510 3510 3510 3510 3521 3521 3521 3521 3521 3521 3521 3521 3521 3521 3521 3521 3521 3510 3510 3510 3510 3510 3510 3510 3500 3500 3500 3500 3500 3500 3500 3510 3510 3510 3510 3521 3521 3521 3521 3521 3521 3521 3521 3521 3521 3521 3521 3521 3521 3521 3510 3510 3510 3510 3510 3510 3500 3500 3500 3500 3500 3490 3490 3490 3479 3479 3469 3469 3469 3459 3449 3459 3449 3449 3439 3439 3419 3409 3409 3390 3380 3370 3370 3351 3351 3370 3370 3351 3351 3342 3323 3323 3314 3314 3295 3286 3286 3277 0 0 0 0 0 0 0 0 0 0 0 0 0 0 0 0 0 0 0 0 0 0 0 0 0 0 1015 1015 1015 1014 1013 1013 1012 1011 1010 1009 1008 1008 1008 1009 1010 1012 1013 1015 1017 1019 1020 1023 0 3409 3419 3419 3419 3419 3439 3439 3449 3449 3449 3449 3449 3449 3449 3449 3449 3449 3449 3439 3439 3439 3439 3439 3439 3439 3439 3439 3439 3439 3439 3439 3439 3419 3409 3409 3409 3409 3409 3419 3419 3419 3419 3419 3439 3439 3439 3439 3449 3439 3439 3439 3439 3439 3439 3439 3419 3419 3419 3419 3409 3409 3409 3409 3409 3409 3409 3409 3409 3409 3409 3409 3409 3409 3409 3390 3390 3380 3380 3380 3370 3370 3351 3351 3351 3351 3351 3342 3351 3351 3351 3351 3370 3380 3380 3380 3390 3390 3409 3419 3419 3439 3419 3419 3419 3409 3390 3380 3370 3342 3323 3323 3314 3295 3295 3286 3286 3277 3277 3277 3277 3277 3268 3268 3268 3268 3277 3277 3277 3277 3286 3286 3295 3295 3314 3314 3323 3342 3351 3351 3370 3370 3370 3370 3370 3351 3342 3323 3314 3286 3268 3259 3250 3241 3232 3232 3232 3223 3223 3215 3215 3215 3215 3215 3206 3206 3206 3215 3215 3215 3215 3215 3215 3206 3206 3206 3206 3197 3197 3197 3197 3197 3197 3197 3197 3197 3197 3206 3206 3206 3215 3215 3215 3223 3223 3232 3232 3232 3232 3232 3232 3232 3232 3232 3232 3232 3232 3241 3241 3241 3241 3241 3250 3259 3268 3277 3286 3286 3286 3286 3277 3268 3259 3241 3241 3232 3232 3223 3215 3215 3215 3215 3215 3215 3215 3215 3215 3215 3215 3215 3223 3215 3215 3215 3215 3206 3206 3206 3206 3206 3197 3197 3197 3197 3197 3197 3197 3197 3197 3197 3197 3189 3189 3189 3189 3189 3189 3189 3189 3189 3189 3189 3189 3197 3197 3197 3197 3197 3197 3197 3197 3197 3189 3189 3180 3180 3180 3180 3180 3180 3180 3189 3189 3197 3197 3197 3206 3206 3206 3206 3206 3206 3206 3197 3197 3197 3197 3189 3180 3180 3172 3172 3172 3163 3172 3163 3163 3163 3163 3155 3155 3155 3155 3155 3155 3155 3155 3163 3172 3172 3180 3180 3189 3189 3189 3189 3197 3189 3189 3180 3172 3172 3163 3155 3146 3146 3146 3146 3146 3146 3146 3146 3146 3146 3146 3155 3155 3155 3146 3146 3130 3105 3097 3089 3065 3049 3041 3018 3010 3010 3003 3003 2995 2987 2987 2980 2980 2972 2972 2972 2972 2972 2972 2965 2965 2965 2972 2972 2972 2972 2972 2980 2980 2980 2987 2995 3003 3010 3010 3018 3026 3041 3049 3065 3065 3073 3089 3097 3105 3121 3130 3146 3155 3163 3172 3180 3189 3197 3197 3197 3197 3197
0 0 0 0 0 0 0 0 0 0 0 0 0 0 0 0 0 0 0 0 3521 3521 3521 3521 3521 3531 3531 3542 3542 3542 3553 3553 3553 3553 3563 3563 3563 3563 3563 3553 3553 3553 3553 3542 3542 3542 3542 3542 3542 3531 3531 3531 3531 3521 3521 3521 3521 3521 3521 3521 3521 3521 3521 3521 3521 3521 3521 3521 3521 3521 3521 3521 3521 3521 3521 3521 3521 3531 3531 3531 3531 3531 3531 3531 3531 3531 3531 3531 3531 3531 3521 3521 3521 3521 3521 3510 3510 3510 3510 3510 3510 3510 3510 3510 3521 3521 3521 3521 3521 3531 3531 3531 3531 3531 3531 3531 3531 3531 3531 3531 3521 3521 3521 3521 3521 3521 3521 3521 3521 3510 3510 3510 3510 3510 3500 3500 3500 3490 3479 3479 3479 3469 3459 3459 3449 3459 3449 3439 3439 3409 3409 3380 3380 3370 3351 3351 3351 3351 3351 0 0 0 0 0 0 0 3268 3259 3250 0 0 0 0 0 0 0 0 0 0 0 0 0 0 0 0 0 0 0 0 0 0 0 0 0 0 0 1017 1016 1015 1015 1015 1015 1013 1012 1011 1010 1009 1009 1009 1009 1010 1012 1014 1015 1017 1019 1021 1023 0 3439 3439 3439 3439 3449 3449 3449 3459 3459 3469 3469 3469 3479 3469 3469 3469 3469 3469 3469 3469 3459 3459 3469 3469 3469 3469 3469 3459 3459 3459 3459 3449 3449 3439 3439 3439 3439 3439 3449 3449 3449 3449 3459 3459 3459 3459 3459 3469 3459 3459 3459 3459 3449 3449 3449 3449 3449 3439 3439 3439 3439 3439 3439 3439 3439 3439 3439 3449 3449 3439 3439 3449 3439 3439 3419 3419 3409 3409 3390 3390 3380 3380 3370 3370 3370 3370 3370 3370 3370 3380 3380 3390 3390 3409 3409 3419 3419 3439 3449 3449 3449 3449 3439 3439 3419 3409 3390 3380 3351 3342 3342 3323 3323 3314 3314 3295 3295 3286 3286 3286 3277 3277 3277 3286 3286 3295 3295 3295 3314 3323 3323 3342 3351 3351 3351 3370 3380 3380 3390 3390 3390 3390 3390 3390 3380 3370 3342 3323 3314 3295 3277 3268 3259 3241 3241 3241 3241 3232 3232 3232 3223 3223 3223 3215 3215 3215 3215 3223 3223 3223 3215 3215 3215 3206 3206 3206 3197 3197 3197 3197 3197 3197 3197 3197 3197 3206 3206 3206 3206 3215 3215 3223 3223 3232 3232 3232 3232 3241 3241 3241 3241 3241 3241 3241 3241 3241 3250 3250 3250 3250 3268 3277 3277 3295 3314 3314 3323 3314 3314 3295 3286 3277 3259 3241 3241 3232 3223 3223 3215 3215 3215 3215 3215 3215 3223 3223 3223 3232 3232 3232 3232 3223 3223 3215 3215 3215 3206 3206 3206 3206 3206 3206 3206 3206 3206 3197 3197 3197 3197 3197 3197 3197 3197 3197 3197 3197 3197 3197 3197 3197 3197 3206 3206 3206 3206 3206 3206 3206 3206 3206 3197 3197 3197 3197 3197 3197 3197 3197 3197 3197 3197 3206 3206 3206 3206 3215 3215 3215 3215 3206 3206 3206 3206 3197 3197 3197 3197 3189 3189 3180 3180 3180 3172 3172 3172 3172 3172 3172 3163 3163 3163 3172 3172 3172 3180 3180 3180 3189 3189 3197 3197 3197 3197 3197 3197 3197 3197 3197 3189 3189 3172 3172 3163 3163 3155 3155 3155 3155 3155 3155 3163 3163 3163 3163 3163 3163 3163 3155 3155 3146 3130 3105 3097 3089 3073 3049 3041 3026 3026 3018 3018 3010 3010 3003 2995 2995 2987 2987 2980 2980 2980 2980 2980 2980 2980 2980 2980 2980 2980 2987 2987 2995 2995 3010 3018 3018 3026 3041 3049 3065 3073 3089 3097 3097 3105 3121 3130 3146 3155 3163 3163 3172 3189 3197 3197 3206 3206 3206 3206 3215 3215
0 0 0 0 0 0 0 0 0 0 0 0 0 0 0 0 0 0 0 0 3531 3531 3531 3542 3542 3542 3553 3553 3553 3563 3574 3574 3585 3585 3596 3596 3596 3596 3585 3585 3574 3574 3574 3563 3563 3553 3553 3553 3553 3553 3542 3542 3542 3542 3542 3542 3542 3542 3542 3542 3531 3531 3531 3531 3531 3531 3531 3531 3531 3531 3531 3531 3531 3531 3531 3531 3542 3542 3542 3542 3542 3553 3553 3553 3553 3553 3553 3553 3542 3542 3542 3542 3531 3531 3521 3521 3521 3521 3521 3521 3521 3521 3521 3521 3521 3531 3531 3531 3542 3542 3542 3542 3542 3542 3542 3542 3542 3542 3531 3531 3531 3531 3531 3531 3531 3521 3521 3521 3521 3521 3521 3521 3521 3521 3510 3510 3500 3500 3500 3490 3479 3479 3469 3469 3469 3459 3449 3439 3439 3419 3409 3390 3380 3370 3351 3342 3342 3342 3323 3323 3295 3286 3277 0 3250 3250 3241 3232 3232 3223 0 0 0 0 0 0 0 0 0 0 0 0 0 0 0 0 0 0 0 0 0 0 0 0 0 0 0 1020 1018 1017 1016 1016 1015 1014 1012 1011 1011 1010 1011 1011 1011 1012 1015 1016 1018 1020 1021 1025 0 3449 3449 3449 3449 3459 3459 3469 3469 3469 3479 3479 3490 3490 3490 3490 3490 3490 3490 3490 3490 3490 3490 3490 3490 3490 3490 3490 3490 3479 3479 3479 3469 3469 3459 3459 3459 3459 3469 3469 3469 3479 3479 3479 3479 3479 3479 3479 3479 3479 3479 3479 3469 3469 3469 3469 3459 3459 3459 3459 3459 3459 3459 3459 3459 3459 3459 3469 3469 3469 3469 3469 3469 3469 3459 3449 3449 3439 3439 3419 3409 3409 3390 3390 3390 3390 3380 3380 3380 3390 3390 3409 3409 3419 3419 3439 3439 3449 3459 3459 3469 3469 3469 3459 3449 3439 3439 3409 3390 3380 3370 3351 3342 3342 3323 3323 3314 3314 3295 3295 3295 3295 3295 3295 3295 3314 3323 3323 3342 3351 3351 3370 3370 3380 3390 3390 3409 3419 3419 3419 3419 3419 3419 3419 3409 3390 3380 3370 3351 3342 3314 3295 3286 3277 3268 3268 3259 3250 3250 3241 3241 3241 3232 3232 3232 3232 3232 3232 3232 3232 3232 3232 3223 3215 3215 3215 3206 3206 3197 3197 3197 3197 3197 3206 3197 3206 3206 3206 3206 3215 3215 3215 3223 3223 3232 3232 3241 3241 3241 3241 3241 3241 3241 3250 3250 3259 3259 3259 3268 3277 3277 3286 3295 3323 3342 3342 3351 3351 3351 3342 3314 3295 3286 3268 3250 3241 3232 3232 3232 3223 3223 3223 3215 3223 3223 3223 3232 3232 3232 3232 3241 3232 3232 3232 3232 3223 3215 3215 3215 3206 3206 3206 3206 3206 3206 3206 3206 3206 3206 3206 3206 3206 3206 3206 3206 3206 3206 3206 3206 3206 3215 3215 3215 3215 3215 3215 3215 3215 3215 3215 3215 3215 3215 3215 3206 3206 3206 3206 3206 3206 3215 3215 3215 3215 3215 3215 3215 3215 3215 3215 3215 3215 3215 3206 3206 3206 3197 3197 3197 3197 3197 3189 3189 3189 3189 3189 3180 3180 3180 3180 3180 3180 3189 3189 3197 3197 3197 3197 3206 3206 3206 3206 3206 3206 3206 3206 3206 3197 3197 3197 3189 3180 3180 3172 3172 3172 3163 3172 3172 3172 3180 3180 3180 3172 3172 3172 3172 3172 3163 3163 3155 3146 3130 3121 3105 3089 3073 3065 3049 3049 3049 3041 3041 3026 3026 3018 3018 3010 3010 3003 2995 2995 2995 2987 2987 2987 2995 2987 2987 2995 3003 3010 3010 3018 3026 3041 3065 3073 3073 3089 3097 3105 3121 3130 3130 3146 3155 3163 3172 3180 3189 3197 3197 3206 3206 3215 3215 3215 3215 3215 3215 3223
0 0 0 0 0 0 0 0 0 0 0 0 0 0 0 0 0 0 0 0 3553 3553 3553 3553 3553 3553 3563 3574 3585 3585 3596 3607 3618 3618 3618 3618 3618 3618 3618 3618 3607 3607 3596 3596 3585 3585 3574 3574 3563 3563 3563 3553 3553 3553 3553 3553 3553 3553 3553 3542 3542 3542 3542 3542 3542 3542 3542 3542 3542 3542 3542 3542 3542 3542 3542 3542 3553 3553 3553 3553 3553 3553 3563 3563 3563 3563 3563 3553 3553 3553 3553 3553 3542 3542 3542 3542 3542 3531 3531 3531 3531 3531 3531 3531 3542 3542 3542 3542 3542 3542 3542 3542 3542 3542 3542 3542 3542 3542 3542 3542 3542 3542 3542 3542 3542 3542 3542 3542 3542 3531 3531 3531 3531 3521 3521 3521 3510 3510 3510 3500 3500 3490 3490 3479 3469 3469 3459 3439 3419 3419 3390 3390 3370 3351 3342 3323 3323 3314 3295 3286 3268 3250 3241 3232 3223 3215 3215 3206 3206 3206 0 0 0 0 0 0 0 0 0 0 0 0 0 0 0 0 0 0 0 0 0 0 0 0 0 0 0 1023 1022 1021 1019 1019 1017 1015 1014 1013 1012 1012 1012 1012 1012 1013 1015 1017 1019 1021 1022 1025 3449 3449 3459 3459 3459 3469 3469 3479 3479 3490 3490 3500 3500 3500 3500 3500 3500 3500 3500 3500 3500 3500 3500 3500 3500 3500 3500 3500 3500 3500 3500 3500 3490 3490 3479 3479 3479 3490 3490 3490 3490 3500 3500 3500 3500 3500 3500 3500 3500 3500 3500 3500 3490 3490 3490 3490 3479 3479 3479 3479 3479 3479 3479 3479 3479 3479 3479 3479 3490 3490 3479 3479 3479 3479 3479 3469 3459 3459 3449 3449 3439 3419 3409 3409 3409 3409 3409 3390 3390 3409 3409 3419 3419 3439 3439 3449 3459 3469 3469 3479 3479 3479 3479 3469 3459 3449 3449 3439 3419 3390 3390 3380 3370 3351 3351 3342 3342 3323 3323 3323 3323 3314 3314 3323 3323 3342 3351 3370 3370 3380 3390 3409 3409 3419 3419 3419 3439 3439 3439 3439 3449 3449 3449 3439 3439 3419 3419 3409 3390 3380 3370 3351 3342 3314 3314 3295 3286 3286 3277 3268 3259 3259 3259 3250 3250 3250 3250 3241 3250 3250 3241 3241 3241 3232 3232 3223 3215 3206 3206 3206 3197 3197 3206 3206 3206 3206 3206 3215 3215 3215 3215 3223 3223 3223 3232 3232 3232 3232 3241 3241 3241 3250 3250 3259 3268 3268 3277 3286 3295 3314 3314 3323 3342 3351 3370 3380 3380 3380 3370 3370 3342 3323 3295 3277 3268 3250 3241 3241 3232 3232 3232 3232 3232 3232 3232 3241 3241 3241 3241 3241 3241 3241 3241 3232 3232 3232 3223 3215 3215 3215 3215 3215 3206 3206 3206 3206 3206 3206 3215 3215 3215 3215 3215 3215 3215 3215 3215 3215 3215 3215 3223 3232 3232 3232 3232 3232 3232 3232 3232 3232 3232 3232 3223 3223 3223 3223 3223 3215 3223 3223 3223 3223 3223 3223 3223 3223 3232 3232 3223 3223 3215 3215 3215 3215 3206 3206 3206 3206 3206 3206 3197 3197 3197 3197 3197 3197 3197 3197 3197 3197 3197 3197 3197 3197 3206 3206 3206 3206 3206 3215 3215 3215 3215 3206 3206 3206 3206 3206 3197 3197 3197 3189 3189 3180 3180 3180 3180 3180 3180 3180 3189 3189 3180 3180 3180 3180 3180 3172 3172 3163 3163 3146 3146 3130 3121 3105 3097 3089 3089 3073 3073 3073 3065 3049 3049 3049 3041 3041 3041 3026 3026 3026 3018 3018 3018 3018 3018 3018 3018 3026 3041 3049 3049 3065 3073 3089 3105 3121 3130 3130 3146 3155 3155 3163 3172 3180 3189 3197 3197 3206 3206 3206 3215 3215 3223 3223 3223 3223 3223 3223 3232 3232
0 0 0 0 0 0 0 0 0 0 0 0 0 0 0 0 0 0 0 3574 3563 3563 3563 3574 3574 3585 3585 3596 3607 3618 3618 3640 3651 3651 3651 3651 3674 3674 3651 3640 3640 3640 3618 3618 3607 3607 3607 3596 3596 3596 3585 3585 3585 3574 3574 3574 3563 3563 3563 3563 3553 3553 3553 3553 3553 3553 3553 3542 3542 3542 3542 3542 3553 3553 3553 3553 3553 3563 3563 3574 3585 3585 3585 3596 3596 3596 3585 3585 3585 3574 3574 3563 3563 3553 3553 3553 3542 3542 3542 3542 3542 3542 3542 3542 3542 3542 3553 3553 3553 3553 3553 3553 3553 3553 3553 3553 3553 3553 3553 3553 3553 3553 3553 3553 3542 3542 3542 3542 3542 3542 3542 3542 3542 3542 3531 3521 3521 3521 3521 3510 3510 3500 3500 3500 3490 3479 3469 3459 3439 3419 3390 3390 3370 3351 3342 3314 3295 3286 3268 3259 3241 3232 3223 3206 3206 3197 3197 3189 3180 3180 3180 0 0 0 0 0 0 0 0 0 0 0 0 0 0 0 0 0 0 0 0 0 0 0 0 0 0 0 1026 1025 1023 1022 1020 1017 1015 1015 1014 1013 1013 1013 1013 1015 1015 1018 1020 1022 1023 1026 3459 3459 3469 3469 3479 3479 3479 3490 3500 3500 3500 3500 3500 3510 3510 3510 3510 3510 3510 3510 3510 3510 3510 3510 3510 3510 3510 3510 3510 3510 3510 3510 3500 3500 3500 3500 3500 3500 3500 3500 3500 3510 3510 3510 3510 3510 3510 3510 3510 3510 3510 3510 3500 3500 3500 3500 3500 3500 3500 3500 3500 3500 3500 3500 3500 3500 3500 3500 3500 3500 3500 3500 3500 3490 3490 3490 3479 3469 3459 3459 3459 3449 3439 3419 3419 3419 3419 3419 3419 3419 3439 3439 3439 3449 3459 3469 3469 3479 3490 3490 3490 3490 3490 3490 3479 3469 3459 3449 3439 3419 3409 3409 3390 3380 3370 3370 3351 3351 3351 3351 3351 3342 3351 3351 3370 3370 3380 3390 3390 3419 3419 3439 3439 3449 3449 3459 3459 3459 3459 3459 3459 3469 3459 3459 3459 3459 3449 3439 3439 3419 3409 3409 3390 3380 3370 3351 3342 3342 3323 3314 3295 3295 3286 3295 3286 3286 3277 3277 3277 3277 3277 3268 3259 3250 3241 3241 3232 3223 3223 3215 3215 3215 3223 3223 3232 3232 3232 3232 3232 3232 3232 3232 3232 3232 3232 3232 3232 3241 3241 3241 3241 3250 3259 3268 3277 3286 3295 3314 3323 3342 3351 3370 3380 3390 3390 3409 3409 3390 3390 3380 3351 3342 3314 3286 3277 3259 3250 3241 3241 3241 3241 3241 3241 3241 3241 3250 3250 3259 3259 3259 3259 3259 3250 3241 3241 3241 3232 3232 3223 3215 3215 3215 3215 3215 3215 3215 3215 3215 3215 3223 3223 3223 3223 3223 3232 3232 3232 3232 3232 3232 3232 3241 3241 3241 3241 3250 3250 3250 3250 3241 3241 3241 3241 3241 3241 3241 3241 3232 3232 3232 3232 3232 3232 3232 3232 3232 3232 3232 3232 3223 3223 3215 3215 3215 3215 3215 3215 3215 3206 3206 3206 3206 3206 3206 3206 3206 3206 3206 3206 3206 3206 3206 3206 3215 3215 3215 3215 3215 3223 3223 3223 3215 3215 3215 3215 3215 3215 3206 3206 3197 3197 3197 3197 3197 3189 3189 3189 3189 3189 3189 3197 3197 3189 3189 3189 3189 3180 3180 3172 3172 3163 3155 3146 3146 3130 3121 3105 3105 3097 3089 3097 3089 3089 3089 3073 3073 3073 3073 3073 3073 3073 3065 3065 3065 3049 3049 3049 3049 3049 3065 3073 3089 3097 3105 3121 3130 3155 3163 3172 3172 3180 3180 3189 3197 3197 3197 3206 3206 3215 3215 3223 3232 3232 3232 3241 3241 3241 3232 3232 3232 3232 3232
0 0 0 0 0 0 0 0 0 0 0 0 0 0 0 0 0 0 0 3596 3596 3585 3585 3585 3596 3596 3607 3618 3640 3640 3651 3674 3674 3685 3685 3685 3685 3685 3685 3674 3674 3651 3651 3651 3640 3640 3640 3618 3618 3618 3607 3607 3607 3596 3596 3596 3596 3585 3585 3574 3574 3574 3563 3563 3563 3553 3553 3553 3553 3553 3553 3553 3553 3553 3563 3563 3574 3585 3585 3596 3607 3607 3618 3618 3618 3618 3618 3607 3607 3596 3596 3585 3585 3574 3563 3563 3553 3553 3553 3553 3553 3553 3553 3553 3553 3553 3553 3553 3553 3553 3563 3563 3563 3563 3563 3563 3563 3563 3563 3563 3563 3563 3553 3553 3553 3553 3553 3553 3553 3553 3553 3553 3542 3542 3542 3531 3531 3531 3521 3521 3521 3510 3510 3510 3500 3500 3479 3459 3449 3439 3409 3390 3370 3370 3342 3314 3295 3295 3268 3250 3232 3215 3206 3197 3180 3172 3163 3155 3155 3155 3155 0 0 0 0 0 0 0 0 0 0 0 0 0 0 0 0 0 0 0 0 0 0 0 0 0 0 1032 1030 1029 1028 1026 1023 1021 1018 1016 1015 1015 1015 1015 1015 1015 1017 1020 1021 1023 1025 1028 3469 3469 3479 3479 3490 3490 3500 3500 3500 3500 3510 3510 3510 3510 3510 3521 3521 3521 3521 3521 3521 3521 3521 3521 3521 3521 3521 3521 3521 3521 3521 3521 3510 3510 3510 3510 3510 3510 3510 3510 3510 3521 3521 3521 3521 3521 3521 3521 3521 3521 3521 3521 3521 3510 3510 3510 3510 3510 3510 3510 3510 3510 3510 3510 3510 3510 3510 3510 3510 3510 3510 3500 3500 3500 3500 3500 3500 3490 3479 3479 3469 3469 3459 3459 3449 3449 3449 3449 3449 3449 3459 3459 3459 3459 3479 3490 3490 3500 3500 3500 3500 3500 3500 3500 3500 3490 3479 3469 3459 3449 3449 3439 3419 3419 3409 3390 3380 3380 3380 3380 3380 3380 3380 3390 3390 3409 3419 3439 3439 3449 3459 3459 3469 3479 3479 3479 3479 3479 3479 3479 3479 3479 3479 3469 3469 3469 3469 3459 3459 3459 3449 3439 3439 3419 3409 3409 3390 3390 3380 3370 3351 3351 3351 3342 3342 3342 3323 3323 3323 3323 3314 3314 3295 3286 3277 3268 3259 3250 3241 3241 3241 3241 3250 3250 3250 3250 3250 3250 3259 3250 3250 3250 3241 3241 3241 3241 3241 3241 3250 3250 3259 3268 3277 3286 3295 3314 3323 3351 3370 3380 3380 3409 3409 3419 3419 3419 3419 3409 3390 3380 3370 3342 3314 3295 3277 3268 3250 3250 3241 3241 3241 3241 3250 3250 3259 3268 3268 3277 3277 3277 3277 3277 3268 3268 3250 3241 3241 3241 3232 3232 3223 3223 3223 3223 3223 3223 3223 3232 3232 3232 3232 3232 3232 3241 3241 3241 3241 3241 3241 3241 3250 3250 3259 3268 3268 3268 3268 3268 3268 3268 3268 3268 3259 3259 3250 3250 3250 3250 3241 3241 3241 3241 3241 3241 3241 3232 3232 3232 3232 3232 3232 3223 3223 3223 3215 3215 3215 3215 3215 3215 3215 3215 3215 3215 3215 3215 3215 3215 3215 3215 3215 3215 3215 3223 3232 3232 3232 3232 3232 3232 3232 3232 3232 3223 3223 3215 3215 3215 3206 3206 3206 3197 3197 3197 3197 3197 3197 3197 3197 3197 3197 3197 3197 3197 3197 3197 3189 3189 3180 3172 3163 3163 3155 3155 3146 3130 3121 3121 3121 3105 3105 3105 3105 3105 3097 3097 3105 3105 3105 3097 3097 3097 3097 3097 3097 3089 3097 3089 3089 3105 3121 3130 3146 3155 3163 3172 3189 3189 3197 3197 3197 3206 3206 3206 3215 3215 3215 3232 3232 3241 3241 3241 3241 3241 3250 3250 3241 3241 3241 3241 3241 3241
0 0 0 0 0 0 0 0 0 0 0 0 0 0 0 0 0 0 3618 3618 3618 3607 3596 3607 3607 3618 3640 3640 3651 3674 3685 3708 3708 3708 3720 3720 3720 3720 3708 3708 3685 3685 3685 3674 3674 3674 3651 3651 3651 3640 3640 3640 3618 3618 3618 3618 3618 3607 3607 3596 3596 3596 3585 3585 3574 3574 3563 3563 3563 3563 3563 3563 3574 3574 3585 3585 3596 3607 3607 3618 3640 3640 3651 3651 3651 3651 3651 3640 3640 3618 3618 3607 3607 3596 3585 3585 3574 3574 3574 3563 3563 3563 3563 3563 3563 3563 3563 3563 3574 3574 3574 3574 3574 3574 3585 3585 3585 3585 3585 3585 3574 3574 3574 3574 3574 3574 3563 3563 3563 3563 3563 3553 3553 3553 3553 3542 3542 3542 3542 3542 3542 3521 3521 3521 3521 3510 3500 3479 3459 3439 3409 3390 3380 3351 3342 3314 3295 3277 3259 3241 3232 3215 3197 3197 3180 3172 3163 3146 3146 3146 3146 0 0 0 0 0 0 0 0 0 0 0 0 0 0 0 0 0 0 0 0 0 0 0 0 0 0 1035 1034 1032 1031 1030 1028 1025 1021 1020 1019 1017 1016 1016 1016 1017 1019 1022 1023 1025 1026 1029 3479 3479 3490 3490 3490 3500 3500 3500 3510 3510 3510 3510 3510 3521 3521 3521 3521 3531 3531 3531 3531 3531 3531 3542 3542 3542 3531 3531 3531 3531 3531 3521 3521 3521 3521 3521 3521 3521 3521 3521 3531 3531 3531 3531 3531 3531 3531 3531 3531 3531 3531 3531 3531 3531 3521 3521 3521 3521 3521 3521 3521 3521 3521 3521 3521 3521 3521 3521 3521 3510 3510 3510 3510 3510 3510 3510 3500 3500 3500 3490 3490 3490 3479 3479 3479 3469 3469 3469 3469 3469 3469 3479 3479 3490 3500 3500 3500 3510 3510 3510 3510 3510 3510 3510 3500 3500 3500 3490 3479 3469 3469 3459 3449 3449 3439 3439 3419 3409 3409 3409 3409 3419 3419 3419 3439 3439 3459 3459 3469 3479 3490 3490 3500 3500 3500 3500 3500 3500 3500 3490 3490 3490 3490 3490 3479 3479 3479 3479 3479 3469 3469 3459 3459 3449 3449 3449 3439 3439 3419 3409 3390 3390 3390 3390 3390 3380 3390 3390 3390 3390 3380 3380 3351 3351 3323 3323 3314 3295 3295 3286 3286 3286 3295 3295 3295 3295 3295 3295 3295 3286 3277 3277 3268 3268 3268 3268 3268 3259 3268 3268 3286 3295 3314 3323 3342 3351 3370 3380 3390 3409 3409 3439 3439 3449 3449 3449 3439 3419 3390 3380 3351 3342 3323 3295 3286 3277 3268 3259 3259 3259 3259 3259 3268 3277 3277 3286 3295 3295 3314 3314 3314 3314 3295 3286 3277 3268 3250 3241 3241 3241 3232 3232 3232 3232 3232 3232 3232 3232 3241 3241 3241 3241 3241 3241 3250 3250 3259 3259 3259 3268 3268 3277 3286 3286 3295 3295 3314 3314 3314 3295 3314 3295 3286 3286 3277 3277 3277 3268 3268 3259 3259 3250 3250 3250 3241 3241 3241 3241 3241 3241 3232 3232 3232 3232 3232 3232 3232 3232 3232 3232 3232 3232 3232 3232 3232 3232 3232 3232 3232 3232 3232 3232 3232 3232 3241 3241 3241 3241 3250 3241 3241 3241 3241 3232 3232 3232 3223 3215 3215 3206 3206 3206 3206 3206 3206 3206 3206 3206 3206 3206 3206 3206 3206 3206 3197 3197 3197 3189 3189 3180 3172 3172 3172 3163 3155 3146 3146 3146 3146 3130 3130 3130 3130 3130 3121 3121 3130 3130 3130 3130 3130 3121 3121 3121 3130 3121 3130 3130 3130 3146 3155 3163 3180 3189 3197 3206 3206 3215 3215 3215 3223 3223 3232 3232 3232 3241 3241 3250 3259 3259 3268 3268 3268 3268 3268 3268 3268 3259 3259 3259 3259 0
0 0 0 0 0 0 0 0 0 0 0 0 0 0 0 0 3685 3674 3674 3651 3651 3640 3640 3640 3640 3651 3674 3674 3685 3685 3708 3720 3720 3732 3732 3732 3732 3732 3720 3720 3720 3708 3708 3708 3708 3685 3674 3674 3674 3674 3651 3651 3651 3651 3651 3651 3640 3640 3640 3618 3618 3618 3607 3596 3596 3596 3585 3585 3585 3585 3585 3585 3596 3596 3607 3607 3618 3640 3651 3651 3674 3674 3685 3685 3685 3685 3685 3674 3674 3674 3651 3651 3640 3618 3618 3607 3607 3607 3596 3596 3585 3585 3585 3585 3585 3585 3585 3585 3585 3596 3596 3596 3596 3596 3596 3607 3607 3607 3607 3607 3596 3596 3596 3596 3585 3585 3585 3585 3585 3585 3574 3574 3574 3563 3563 3553 3553 3553 3553 3553 3553 3553 3542 3542 3531 3521 3510 3500 3479 3469 3439 3419 3390 3370 3351 3323 3314 3286 3259 3241 3232 3215 3197 3189 3180 3163 3155 3155 3130 3146 3130 3130 0 0 0 0 0 0 0 0 0 0 0 0 0 0 0 0 0 0 0 0 0 0 0 0 0 1037 1035 1035 1034 1034 1031 1029 1026 1023 1022 1021 1020 1019 1019 1020 1022 1025 1026 1026 1028 1030 3500 3500 3500 3500 3500 3510 3510 3510 3510 3510 3510 3510 3521 3521 3521 3521 3531 3531 3542 3542 3542 3542 3542 3542 3542 3542 3542 3542 3542 3542 3542 3542 3542 3542 3542 3542 3542 3542 3542 3542 3542 3542 3542 3542 3542 3542 3553 3553 3553 3553 3553 3553 3542 3542 3542 3542 3542 3542 3542 3542 3531 3531 3531 3531 3531 3531 3531 3521 3521 3521 3521 3521 3521 3521 3521 3510 3510 3510 3510 3510 3500 3500 3500 3500 3500 3500 3490 3490 3490 3490 3490 3500 3500 3500 3510 3510 3510 3521 3521 3521 3521 3521 3521 3510 3510 3510 3510 3500 3500 3500 3490 3479 3479 3469 3469 3459 3459 3449 3449 3449 3449 3449 3459 3459 3459 3469 3479 3490 3500 3500 3500 3510 3510 3510 3510 3510 3510 3510 3510 3500 3500 3500 3500 3500 3500 3500 3500 3490 3490 3490 3490 3479 3479 3479 3479 3469 3469 3469 3469 3459 3459 3459 3459 3459 3459 3459 3459 3459 3459 3449 3459 3449 3439 3419 3409 3409 3390 3380 3380 3370 3370 3370 3380 3370 3370 3351 3351 3351 3351 3342 3323 3314 3314 3295 3295 3295 3286 3286 3295 3295 3323 3342 3351 3370 3380 3390 3390 3419 3439 3439 3439 3449 3449 3449 3449 3439 3439 3419 3390 3380 3351 3342 3323 3314 3295 3286 3277 3268 3277 3268 3268 3277 3286 3286 3295 3314 3323 3323 3342 3342 3342 3342 3323 3314 3295 3286 3277 3268 3250 3241 3241 3241 3241 3241 3241 3241 3241 3241 3241 3241 3250 3250 3250 3259 3268 3268 3277 3277 3286 3286 3295 3314 3323 3323 3342 3342 3342 3351 3351 3342 3342 3342 3323 3323 3323 3314 3314 3295 3295 3286 3277 3277 3268 3259 3259 3250 3250 3241 3241 3241 3241 3241 3241 3241 3241 3241 3241 3241 3241 3241 3241 3241 3241 3241 3241 3241 3241 3241 3232 3232 3241 3241 3241 3241 3250 3259 3259 3268 3268 3259 3259 3250 3241 3241 3241 3232 3232 3223 3215 3215 3215 3215 3215 3215 3206 3206 3215 3215 3215 3215 3215 3215 3215 3206 3206 3206 3197 3197 3197 3189 3189 3180 3172 3172 3163 3163 3155 3155 3155 3155 3155 3146 3155 3155 3155 3155 3155 3155 3155 3155 3155 3155 3163 3163 3163 3163 3163 3172 3172 3189 3197 3197 3206 3215 3215 3223 3232 3232 3241 3241 3250 3250 3250 3259 3268 3277 3277 3277 3286 3286 3286 3286 3286 3295 3286 3286 3286 3286 3277 3277 0 0
0 0 0 0 0 0 0 0 0 0 0 0 0 0 0 0 3720 3708 3708 3708 3685 3685 3674 3674 3685 3685 3708 3708 3720 3720 3732 3732 3732 3756 3756 3756 3756 3756 3756 3732 3732 3732 3720 3720 3720 3708 3708 3685 3685 3685 3685 3685 3685 3674 3685 3685 3674 3674 3674 3651 3651 3640 3640 3618 3618 3607 3607 3607 3607 3607 3607 3607 3618 3618 3640 3651 3651 3674 3685 3685 3708 3708 3708 3720 3720 3720 3720 3708 3708 3708 3685 3685 3674 3674 3651 3651 3640 3640 3640 3618 3618 3618 3618 3618 3607 3607 3607 3618 3618 3618 3618 3618 3618 3618 3618 3640 3640 3640 3640 3640 3618 3618 3618 3618 3607 3607 3607 3607 3607 3607 3607 3596 3596 3596 3585 3585 3574 3574 3574 3574 3563 3563 3553 3553 3553 3542 3531 3521 3500 3490 3459 3439 3409 3380 3370 3323 3314 3286 3259 3241 3223 3206 3197 3189 3180 3172 3155 3146 3130 3130 3130 3130 0 0 0 0 0 0 0 0 0 0 0 0 0 0 0 0 0 0 0 0 0 0 0 0 0 1039 1038 1038 1038 1038 1037 1035 1032 1031 1030 1028 1025 1025 1025 1025 1026 1029 1029 1028 1029 1031 3510 3510 3521 3521 3521 3521 3521 3521 3531 3531 3521 3521 3521 3531 3531 3542 3542 3542 3542 3553 3553 3553 3553 3553 3553 3553 3553 3553 3553 3553 3553 3553 3553 3553 3553 3553 3553 3553 3553 3553 3553 3553 3553 3553 3553 3553 3563 3563 3563 3563 3563 3563 3553 3553 3553 3553 3553 3553 3553 3553 3542 3542 3542 3542 3542 3542 3542 3542 3531 3531 3531 3531 3531 3531 3521 3521 3521 3521 3521 3521 3521 3510 3510 3510 3510 3510 3510 3510 3510 3510 3510 3510 3510 3510 3521 3521 3531 3531 3542 3542 3542 3531 3531 3531 3521 3521 3510 3510 3510 3510 3500 3500 3500 3490 3490 3490 3479 3469 3469 3469 3469 3479 3479 3490 3490 3500 3500 3510 3510 3510 3521 3521 3521 3521 3521 3521 3521 3521 3510 3510 3510 3510 3510 3500 3500 3500 3500 3500 3500 3500 3500 3500 3500 3500 3490 3490 3490 3500 3490 3490 3490 3490 3490 3490 3500 3500 3500 3500 3500 3500 3500 3500 3490 3490 3479 3469 3469 3459 3459 3449 3449 3449 3449 3449 3439 3419 3409 3409 3390 3380 3370 3351 3351 3342 3323 3323 3323 3323 3323 3342 3370 3380 3390 3409 3419 3419 3439 3449 3449 3459 3449 3459 3459 3459 3449 3439 3439 3409 3390 3370 3351 3342 3323 3314 3295 3295 3286 3286 3286 3286 3286 3286 3314 3314 3323 3342 3351 3351 3351 3370 3370 3370 3351 3342 3323 3314 3295 3277 3268 3259 3259 3250 3250 3250 3250 3250 3250 3250 3259 3259 3259 3268 3268 3277 3277 3295 3295 3295 3314 3323 3323 3342 3351 3370 3370 3380 3380 3380 3380 3380 3380 3380 3370 3351 3351 3351 3342 3342 3323 3314 3295 3295 3286 3277 3277 3268 3268 3259 3259 3259 3259 3259 3250 3250 3250 3250 3250 3259 3259 3259 3259 3259 3259 3259 3259 3259 3250 3250 3250 3250 3250 3250 3259 3268 3268 3277 3277 3277 3286 3277 3277 3268 3259 3250 3241 3241 3232 3232 3232 3223 3223 3223 3215 3215 3215 3215 3215 3223 3223 3223 3223 3215 3215 3215 3215 3206 3206 3197 3197 3197 3197 3189 3189 3180 3180 3172 3172 3172 3163 3172 3172 3172 3172 3172 3172 3172 3172 3180 3180 3189 3189 3189 3189 3189 3197 3197 3197 3206 3206 3215 3215 3223 3232 3241 3241 3250 3259 3268 3277 3277 3277 3286 3295 3295 3295 3314 3314 3314 3323 3323 3323 3323 3323 3323 3323 3314 3295 3295 3295 0 0 0
0 0 0 0 0 0 0 0 0 0 0 0 0 0 0 0 3756 3732 3732 3732 3732 3720 3708 3708 3720 3732 3732 3732 3732 3756 3756 3768 3768 3768 3768 3768 3768 3768 3768 3756 3756 3756 3732 3732 3732 3720 3720 3720 3720 3720 3720 3720 3708 3708 3720 3708 3708 3708 3708 3685 3685 3674 3674 3651 3651 3640 3640 3640 3640 3640 3640 3640 3651 3674 3674 3685 3708 3708 3720 3720 3732 3732 3732 3732 3732 3732 3732 3732 3732 3732 3720 3720 3708 3708 3685 3685 3674 3674 3674 3674 3651 3651 3651 3651 3651 3651 3651 3651 3651 3651 3651 3651 3651 3651 3674 3674 3674 3674 3674 3674 3651 3651 3651 3651 3651 3640 3640 3640 3640 3640 3640 3618 3618 3618 3607 3607 3596 3596 3596 3596 3596 3585 3585 3574 3563 3553 3553 3542 3510 3510 3479 3459 3419 3409 3380 3351 3314 3286 3268 3241 3223 3215 3206 3189 3180 3163 3146 3130 3130 3130 3105 3105 0 0 0 0 0 0 0 0 0 0 0 0 0 0 0 0 0 0 0 0 0 0 0 0 0 1040 1040 1040 1040 1040 1040 1038 1038 1036 1036 1035 1032 1031 1030 1029 1030 1031 1031 1030 1030 1032 0 3531 3531 3531 3531 3542 3542 3542 3542 3542 3542 3542 3542 3542 3542 3553 3553 3553 3563 3563 3563 3574 3574 3574 3574 3574 3563 3563 3563 3563 3563 3553 3553 3553 3553 3553 3553 3553 3553 3563 3563 3563 3563 3574 3574 3574 3585 3585 3585 3585 3585 3585 3585 3585 3585 3574 3574 3574 3563 3563 3563 3553 3553 3553 3553 3553 3553 3542 3542 3542 3542 3542 3542 3542 3542 3542 3542 3531 3531 3531 3531 3531 3521 3521 3521 3521 3521 3521 3521 3521 3521 3521 3521 3521 3531 3542 3542 3553 3553 3553 3553 3553 3553 3542 3542 3542 3531 3531 3521 3521 3521 3510 3510 3510 3500 3500 3500 3500 3500 3500 3500 3500 3500 3500 3510 3510 3521 3521 3521 3521 3531 3531 3542 3542 3542 3542 3531 3531 3521 3521 3521 3510 3510 3510 3510 3510 3510 3510 3510 3510 3510 3510 3510 3510 3510 3510 3510 3510 3510 3510 3510 3510 3510 3510 3510 3521 3521 3521 3521 3521 3521 3521 3521 3521 3510 3510 3510 3510 3500 3500 3500 3500 3500 3490 3479 3469 3469 3449 3449 3439 3419 3390 3390 3370 3370 3370 3351 3351 3370 3380 3409 3419 3439 3449 3449 3459 3469 3469 3469 3469 3469 3469 3469 3459 3449 3439 3419 3409 3390 3370 3351 3342 3323 3323 3314 3295 3295 3295 3295 3295 3314 3314 3323 3342 3351 3370 3370 3380 3380 3380 3390 3380 3380 3370 3351 3342 3323 3314 3295 3286 3277 3277 3268 3268 3268 3268 3268 3268 3268 3277 3277 3277 3286 3286 3314 3323 3323 3342 3342 3351 3370 3380 3390 3409 3409 3409 3419 3419 3419 3419 3409 3409 3390 3390 3390 3380 3380 3370 3351 3342 3323 3323 3314 3314 3295 3286 3286 3286 3277 3277 3277 3277 3268 3268 3268 3268 3268 3277 3277 3286 3286 3286 3286 3286 3277 3277 3268 3268 3268 3268 3268 3277 3277 3286 3286 3295 3295 3295 3295 3295 3286 3277 3268 3268 3250 3241 3241 3241 3232 3232 3232 3232 3232 3232 3232 3232 3232 3232 3232 3232 3232 3232 3223 3215 3215 3215 3206 3206 3206 3197 3197 3197 3197 3197 3189 3189 3189 3189 3180 3189 3189 3189 3189 3197 3197 3197 3197 3197 3197 3206 3206 3206 3206 3206 3215 3215 3223 3232 3232 3241 3250 3259 3268 3277 3286 3295 3314 3323 3323 3323 3323 3342 3342 3342 3342 3351 3351 3351 3351 3370 3370 3370 3370 3351 3351 3351 3342 3323 0 0 0 0
0 0 0 0 0 0 0 0 0 0 0 0 0 0 0 0 3792 3768 3768 3768 3768 3756 3732 3756 3756 3768 3768 3768 3768 3768 3792 3792 3792 3792 3792 3792 3792 3792 3792 3768 3768 3768 3768 3756 3756 3756 3732 3732 3756 3732 3732 3732 3732 3732 3732 3732 3732 3732 3720 3720 3720 3708 3708 3685 3685 3674 3674 3674 3674 3674 3674 3685 3685 3708 3720 3720 3732 3732 3756 3768 3768 3768 3768 3768 3768 3768 3768 3768 3768 3756 3756 3756 3732 3732 3720 3720 3720 3708 3708 3708 3708 3685 3685 3685 3685 3685 3685 3685 3685 3685 3685 3685 3708 3708 3708 3708 3708 3708 3708 3708 3685 3685 3685 3685 3685 3674 3674 3674 3674 3674 3674 3651 3651 3651 3640 3640 3618 3618 3618 3640 3618 3618 3607 3596 3585 3563 3563 3542 3531 3510 3490 3469 3439 3409 3390 3351 3314 3286 3259 3241 3223 3215 3206 3189 3180 3163 3146 3130 3105 3105 3097 3097 0 0 0 0 0 0 0 0 0 0 0 0 0 0 0 0 0 0 0 0 0 0 0 0 0 1040 1040 1040 1040 1040 1040 1040 1040 1040 1040 1038 1037 1036 1035 1034 1031 1034 1032 1032 1032 0 3542 3542 0 3553 3553 3553 3553 3553 3553 3553 3553 3553 3553 3553 3563 3574 3574 3574 3585 3596 3585 3596 3596 3596 3596 3585 3585 3585 3585 3585 3574 3563 3563 3563 3563 3563 3563 3563 3563 3574 3574 3574 3585 3585 3596 3596 3596 3596 3607 3607 3607 3607 3607 3596 3596 3596 3596 3596 3585 3585 3574 3574 3574 3563 3563 3563 3553 3553 3553 3553 3553 3553 3542 3542 3542 3542 3542 3542 3542 3542 3542 3542 3542 3542 3542 3542 3542 3542 3531 3531 3531 3542 3542 3542 3542 3553 3553 3563 3563 3574 3563 3574 3563 3563 3553 3553 3553 3553 3542 3542 3531 3531 3521 3521 3521 3521 3521 3510 3510 3521 3521 3521 3521 3521 3521 3521 3531 3542 3542 3542 3542 3553 3553 3553 3553 3542 3542 3542 3531 3531 3531 3521 3521 3521 3521 3521 3521 3521 3510 3510 3510 3510 3510 3521 3521 3521 3521 3521 3521 3521 3521 3521 3531 3531 3531 3542 3542 3542 3542 3542 3542 3542 3542 3542 3542 3542 3531 3531 3531 3531 3521 3521 3521 3521 3510 3510 3500 3490 3479 3469 3459 3439 3419 3409 3409 3390 3390 3390 3409 3419 3439 3459 3469 3479 3479 3490 3490 3490 3490 3479 3469 3469 3469 3459 3449 3439 3419 3409 3390 3370 3351 3351 3342 3323 3323 3314 3314 3314 3314 3323 3323 3342 3351 3351 3380 3380 3390 3390 3409 3409 3409 3409 3390 3380 3370 3351 3342 3323 3314 3295 3286 3286 3277 3277 3277 3277 3277 3277 3286 3286 3295 3295 3314 3323 3323 3351 3351 3370 3370 3380 3390 3409 3409 3419 3439 3439 3449 3449 3449 3449 3439 3439 3439 3419 3409 3409 3409 3390 3380 3370 3351 3342 3342 3323 3323 3314 3314 3314 3314 3314 3314 3314 3295 3286 3295 3295 3295 3295 3295 3314 3314 3314 3314 3314 3314 3295 3295 3286 3286 3286 3286 3286 3295 3295 3314 3314 3314 3314 3314 3314 3295 3295 3286 3277 3268 3259 3250 3241 3241 3241 3241 3241 3241 3232 3232 3241 3241 3241 3241 3232 3232 3232 3232 3223 3223 3215 3215 3215 3215 3206 3206 3206 3197 3197 3197 3197 3197 3197 3197 3197 3197 3197 3206 3206 3206 3206 3215 3215 3215 3215 3215 3223 3232 3232 3232 3241 3241 3250 3259 3268 3286 3295 3314 3323 3323 3342 3351 3370 3370 3370 3370 3370 3370 3380 3390 3380 3380 3380 3390 3390 3380 3390 3380 3380 3370 3370 3351 0 0 0 0 0
0 0 0 0 0 0 0 0 0 0 0 0 0 0 0 3816 3816 3804 3804 3804 3804 3792 3792 3792 3792 3792 3804 3804 3804 3804 3804 3804 3804 3804 3804 3804 3804 3804 3792 3792 3792 3792 3768 3768 3768 3768 3768 3768 3768 3768 3768 3768 3768 3768 3768 3756 3756 3756 3756 3756 3732 3732 3732 3720 3720 3708 3708 3708 3708 3708 3708 3720 3720 3732 3732 3756 3768 3792 3792 3804 3804 3804 3804 3804 3804 3804 3804 3804 3792 3792 3792 3792 3768 3768 3768 3756 3756 3756 3756 3732 3732 3732 3720 3720 3720 3720 3720 3720 3720 3720 3720 3720 3720 3720 3732 3732 3732 3732 3732 3732 3720 3720 3720 3720 3708 3708 3708 3708 3708 3708 3685 3708 3685 3685 3685 3674 3674 3651 3651 3651 3651 3651 3618 3618 3607 3585 3563 3553 3531 3510 3500 3469 3439 3409 3380 3342 3295 3277 3259 3241 3232 3215 3197 3189 3172 3155 3130 3121 3105 3089 3089 3073 0 0 0 0 0 0 0 0 0 0 0 0 0 0 0 0 0 0 0 0 0 0 0 0 0 1040 1040 1040 1040 1040 1040 1040 1040 1040 1040 1040 1039 1038 1037 1035 1034 1035 1035 1034 1034 1035 3563 3563 3563 3574 3563 3574 3574 3574 3574 3574 3574 3574 3574 3585 3585 3596 3596 3596 3607 3618 3607 3618 3618 3618 3607 3607 3607 3607 3607 3596 3596 3585 3585 3574 3574 3574 3574 3574 3574 3585 3585 3585 3596 3596 3596 3607 3607 3607 3607 3618 3618 3618 3618 3618 3618 3618 3607 3607 3607 3596 3596 3596 3585 3585 3574 3574 3563 3563 3563 3563 3563 3563 3553 3553 3553 3553 3553 3553 3553 3553 3553 3553 3553 3553 3553 3553 3553 3553 3553 3553 3553 3553 3553 3553 3563 3574 3574 3585 3596 3596 3585 3596 3585 3585 3585 3574 3574 3563 3553 3553 3553 3553 3542 3542 3542 3542 3542 3531 3531 3531 3531 3531 3542 3542 3542 3542 3553 3553 3553 3553 3563 3563 3563 3574 3563 3553 3553 3542 3542 3542 3531 3531 3531 3521 3521 3521 3521 3521 3521 3521 3521 3521 3521 3531 3531 3531 3531 3542 3542 3542 3542 3542 3553 3553 3553 3553 3563 3563 3563 3563 3574 3574 3574 3563 3563 3563 3553 3553 3553 3553 3553 3553 3553 3542 3542 3531 3521 3510 3510 3500 3490 3479 3469 3459 3449 3439 3449 3439 3449 3459 3469 3490 3490 3500 3500 3500 3500 3500 3500 3490 3479 3479 3469 3459 3449 3439 3419 3409 3390 3380 3351 3351 3342 3342 3342 3323 3323 3342 3342 3351 3351 3370 3370 3380 3390 3409 3409 3419 3419 3419 3419 3419 3409 3390 3380 3370 3351 3342 3323 3314 3295 3295 3295 3286 3286 3286 3286 3295 3295 3314 3314 3323 3342 3351 3370 3380 3390 3390 3409 3419 3419 3439 3449 3449 3449 3449 3459 3459 3459 3459 3459 3459 3449 3439 3439 3439 3419 3409 3409 3390 3380 3370 3370 3370 3351 3351 3351 3342 3342 3342 3342 3342 3342 3342 3342 3342 3342 3342 3342 3342 3342 3342 3342 3342 3342 3323 3323 3314 3314 3295 3295 3295 3314 3323 3323 3323 3323 3323 3323 3323 3323 3314 3295 3286 3277 3268 3259 3259 3250 3250 3241 3241 3241 3241 3241 3241 3250 3250 3241 3241 3241 3241 3241 3232 3232 3232 3223 3223 3215 3215 3215 3215 3206 3206 3206 3206 3206 3206 3206 3206 3215 3215 3215 3223 3232 3232 3232 3232 3232 3232 3241 3241 3241 3250 3259 3268 3277 3286 3295 3314 3342 3342 3370 3370 3380 3380 3390 3390 3390 3390 3409 3390 3409 3409 3409 3409 3409 3419 3409 3409 3409 3390 3390 3390 3390 3380 0 0 0 0 0 0
0 0 0 0 0 0 0 0 0 0 0 0 0 0 0 0 3841 3841 3841 3841 3829 3816 3816 3816 3816 3816 3816 3816 3816 3816 3816 3816 3816 3816 3816 3816 3816 3816 3816 3804 3804 3792 3792 3792 3792 3792 3768 3768 3792 3792 3792 3792 3792 3792 3804 3792 3792 3792 3792 3792 3768 3768 3756 3756 3732 3732 3732 3732 3732 3732 3732 3756 3756 3768 3792 3792 3804 3804 3816 3816 3816 3816 3816 3816 3816 3816 3816 3816 3816 3804 3804 3804 3804 3804 3804 3804 3792 3792 3792 3792 3768 3768 3768 3768 3768 3756 3756 3756 3756 3756 3756 3768 3768 3768 3768 3768 3768 3768 3768 3768 3756 3756 3756 3732 3732 3732 3732 3732 3732 3732 3732 3732 3720 3720 3720 3708 3708 3685 3685 3685 3674 3674 3651 3640 3607 3607 3585 3563 3542 3521 3500 3479 3449 3409 3380 3342 3295 3286 3268 3241 3232 3215 3206 3197 3180 3163 3130 3105 3089 3073 3065 3041 0 0 0 0 0 0 0 0 0 0 0 0 0 0 0 0 0 0 0 0 0 0 0 0 0 1040 1040 1040 1040 1041 1041 1041 1041 1041 1040 1040 1040 1040 1039 1037 1036 1037 1036 1036 1035 1036 3596 3596 3607 3607 3607 3607 3607 3607 3607 3607 3596 3607 3607 3607 3618 3618 3618 3640 3640 3651 3640 3651 3651 3651 3640 3640 3640 3640 3618 3618 3607 3607 3607 3596 3596 3596 3596 3596 3596 3596 3596 3596 3607 3607 3607 3607 3618 3618 3618 3618 3618 3640 3640 3640 3640 3640 3640 3640 3640 3618 3618 3607 3607 3607 3596 3596 3585 3585 3585 3574 3574 3574 3574 3574 3574 3574 3574 3574 3574 3574 3574 3574 3574 3574 3574 3574 3574 3563 3563 3563 3563 3574 3574 3585 3585 3596 3596 3607 3607 3618 3607 3607 3607 3618 3607 3607 3607 3596 3596 3585 3574 3574 3563 3563 3553 3553 3553 3553 3553 3553 3553 3553 3553 3553 3553 3553 3563 3563 3574 3574 3574 3574 3574 3574 3574 3563 3553 3553 3553 3553 3542 3542 3542 3542 3531 3531 3531 3531 3531 3531 3542 3542 3542 3542 3542 3542 3553 3553 3553 3563 3563 3563 3563 3574 3585 3585 3596 3596 3596 3607 3607 3607 3596 3596 3596 3596 3596 3585 3585 3585 3574 3574 3563 3553 3553 3553 3542 3531 3521 3521 3510 3510 3500 3500 3490 3490 3490 3490 3490 3500 3500 3510 3510 3510 3510 3510 3510 3500 3500 3500 3490 3479 3469 3469 3459 3449 3439 3409 3390 3380 3370 3370 3351 3351 3351 3351 3351 3351 3351 3370 3370 3380 3390 3409 3409 3419 3419 3419 3419 3439 3439 3419 3409 3390 3380 3380 3370 3351 3342 3323 3295 3295 3295 3295 3295 3295 3295 3314 3323 3342 3351 3351 3370 3380 3390 3409 3419 3419 3439 3449 3449 3459 3459 3459 3469 3469 3469 3469 3469 3469 3469 3469 3459 3459 3459 3449 3449 3439 3419 3409 3409 3409 3390 3390 3390 3390 3380 3380 3380 3390 3390 3380 3380 3370 3380 3380 3380 3370 3370 3370 3370 3370 3370 3370 3351 3351 3351 3342 3342 3323 3323 3323 3323 3342 3342 3342 3351 3351 3342 3342 3342 3323 3314 3295 3295 3286 3277 3268 3268 3259 3259 3259 3259 3259 3259 3259 3268 3268 3259 3259 3259 3259 3250 3241 3241 3241 3232 3232 3232 3223 3223 3215 3215 3215 3215 3215 3215 3215 3223 3223 3232 3232 3232 3241 3241 3241 3250 3250 3259 3259 3268 3277 3277 3286 3295 3314 3323 3342 3351 3370 3370 3380 3390 3390 3409 3409 3419 3419 3409 3419 3419 3419 3419 3419 3419 3419 3439 3419 3419 3419 3409 3409 3409 3390 3390 0 0 0 0 0 0 0
0 0 0 0 0 0 0 0 0 0 0 0 0 0 0 3866 3866 3866 3866 3866 3853 3853 3853 3841 3853 3841 3841 3841 3841 3841 3841 3841 3841 3841 3841 3841 3829 3829 3829 3816 3816 3816 3804 3804 3804 3804 3804 3804 3804 3816 3816 3816 3816 3816 3816 3816 3816 3816 3816 3816 3804 3804 3792 3792 3768 3768 3768 3768 3768 3768 3792 3792 3804 3804 3816 3816 3829 3829 3841 3841 3841 3841 3841 3841 3841 3841 3841 3829 3829 3829 3829 3829 3829 3829 3816 3816 3816 3816 3816 3816 3816 3816 3804 3804 3804 3804 3804 3804 3804 3804 3804 3804 3804 3804 3804 3804 3804 3804 3804 3804 3792 3792 3768 3768 3768 3768 3768 3768 3768 3768 3768 3768 3756 3756 3756 3756 3732 3720 3720 3708 3708 3685 3674 3651 3618 3607 3596 3574 3553 3521 3510 3490 3459 3409 3380 3342 3314 3277 3268 3250 3232 3223 3206 3197 3180 3155 3121 3089 3049 3041 3026 3010 3003 0 0 0 0 0 0 0 0 0 0 0 0 0 0 0 0 0 0 0 0 0 0 0 0 1040 1040 1041 1041 1041 1043 1042 1043 1043 1043 1042 1041 1040 1040 1040 1039 1039 1038 1037 1036 1037 3640 3640 3651 3651 3651 3651 3651 3651 3651 3640 3640 3640 3640 3640 3651 3651 3651 3651 3674 3674 3674 3685 3685 3685 3674 3674 3674 3674 3651 3651 3640 3640 3618 3618 3618 3618 3618 3618 3618 3618 3618 3618 3618 3618 3640 3640 3640 3640 3640 3640 3640 3651 3651 3651 3651 3651 3640 3651 3640 3640 3618 3618 3618 3618 3618 3618 3607 3607 3607 3596 3596 3596 3596 3596 3596 3596 3596 3596 3596 3596 3596 3596 3596 3596 3596 3596 3596 3596 3596 3596 3596 3596 3607 3607 3607 3618 3618 3618 3640 3640 3640 3640 3640 3651 3640 3651 3640 3640 3640 3618 3618 3607 3596 3596 3585 3585 3585 3574 3574 3574 3574 3574 3574 3574 3574 3574 3585 3596 3585 3596 3596 3596 3585 3585 3585 3574 3563 3563 3553 3553 3553 3553 3542 3542 3542 3542 3542 3542 3542 3542 3542 3542 3553 3553 3553 3553 3563 3574 3574 3585 3585 3585 3596 3596 3607 3607 3618 3618 3640 3640 3640 3640 3640 3640 3640 3640 3640 3640 3618 3618 3607 3596 3596 3585 3574 3563 3553 3553 3542 3542 3531 3521 3521 3510 3510 3510 3510 3510 3510 3510 3521 3521 3521 3521 3521 3521 3510 3510 3500 3500 3500 3490 3479 3469 3459 3449 3449 3419 3419 3409 3380 3380 3380 3370 3370 3370 3370 3380 3380 3390 3390 3390 3409 3419 3419 3439 3439 3439 3439 3439 3439 3439 3419 3390 3390 3380 3380 3370 3351 3342 3314 3314 3323 3323 3323 3323 3323 3323 3351 3370 3380 3380 3390 3419 3439 3449 3459 3459 3459 3469 3469 3469 3479 3479 3479 3479 3479 3479 3479 3479 3479 3479 3469 3469 3459 3459 3459 3449 3449 3439 3439 3419 3419 3419 3419 3419 3419 3419 3419 3439 3439 3439 3419 3419 3419 3419 3419 3409 3409 3409 3409 3409 3409 3390 3380 3380 3380 3370 3351 3351 3351 3351 3351 3351 3370 3370 3370 3370 3351 3351 3351 3342 3323 3314 3314 3295 3286 3286 3277 3277 3277 3277 3277 3277 3277 3277 3286 3277 3277 3277 3277 3277 3268 3268 3259 3250 3250 3241 3241 3232 3232 3232 3232 3232 3232 3232 3232 3232 3241 3241 3241 3250 3259 3268 3277 3277 3277 3286 3286 3295 3314 3314 3323 3342 3351 3370 3380 3380 3390 3409 3419 3419 3419 3419 3419 3419 3439 3419 3419 3439 3439 3439 3449 3439 3439 3439 3439 3449 3439 3419 3419 3409 3390 3380 3380 0 0 0 0 0 0 0
0 0 0 0 0 0 0 0 0 0 0 0 0 0 0 3879 3879 3879 3879 3866 3866 3866 3866 3866 3866 3866 3866 3866 3866 3866 3866 3866 3866 3866 3866 3853 3853 3853 3841 3841 3829 3829 3829 3829 3829 3829 3829 3829 3829 3829 3829 3841 3841 3841 3841 3841 3841 3841 3829 3829 3829 3829 3816 3816 3816 3816 3804 3804 3816 3816 3816 3816 3829 3829 3841 3841 3841 3853 3853 3866 3866 3866 3866 3866 3866 3866 3853 3853 3853 3841 3841 3841 3841 3841 3841 3841 3841 3841 3841 3841 3841 3841 3841 3829 3829 3829 3829 3829 3829 3829 3829 3829 3829 3829 3829 3829 3829 3829 3816 3816 3816 3816 3804 3804 3804 3804 3804 3804 3804 3804 3804 3792 3792 3792 3792 3792 3768 3756 3732 3732 3720 3708 3685 3674 3640 3618 3596 3585 3553 3531 3510 3500 3459 3419 3380 3342 3295 3277 3259 3250 3232 3215 3206 3197 3172 3146 3105 3065 3026 3010 2995 2980 2972 0 0 0 0 0 0 0 0 0 0 0 0 0 0 0 0 0 0 0 0 0 0 0 0 1040 1040 1041 1042 1043 1044 1044 1044 1044 1044 1044 1043 1043 1042 1041 1040 1040 1040 1039 1038 1037 3685 3674 3685 3685 3685 3685 3685 3685 3685 3685 3685 3685 3674 3674 3685 3685 3685 3685 3708 3708 3708 3720 3720 3720 3708 3708 3685 3685 3685 3674 3674 3651 3651 3651 3651 3640 3640 3640 3640 3640 3651 3651 3651 3651 3651 3651 3651 3651 3674 3674 3674 3674 3674 3674 3674 3674 3651 3651 3651 3651 3651 3640 3640 3640 3640 3618 3618 3618 3618 3618 3618 3607 3607 3607 3607 3607 3607 3607 3607 3607 3607 3618 3618 3618 3618 3618 3618 3618 3618 3618 3618 3618 3640 3640 3640 3640 3640 3640 3651 3651 3651 3651 3674 3674 3674 3685 3685 3685 3685 3674 3651 3651 3651 3640 3618 3618 3618 3607 3607 3607 3596 3607 3607 3607 3596 3607 3607 3618 3607 3618 3607 3607 3607 3596 3585 3574 3574 3563 3563 3563 3553 3553 3553 3553 3553 3553 3553 3553 3553 3553 3553 3553 3563 3563 3574 3574 3585 3596 3596 3607 3607 3607 3618 3618 3640 3640 3640 3651 3651 3674 3674 3651 3674 3674 3651 3651 3651 3651 3651 3640 3640 3618 3618 3607 3596 3585 3574 3563 3553 3553 3542 3542 3531 3531 3521 3521 3521 3521 3531 3531 3531 3542 3542 3531 3531 3521 3521 3510 3510 3500 3500 3500 3490 3479 3469 3459 3459 3449 3439 3419 3409 3409 3390 3390 3390 3390 3409 3409 3409 3409 3419 3419 3439 3439 3439 3449 3449 3449 3449 3439 3439 3439 3419 3409 3390 3390 3380 3380 3370 3351 3342 3351 3351 3351 3351 3351 3351 3370 3380 3390 3409 3419 3439 3449 3459 3469 3479 3479 3479 3490 3490 3490 3490 3490 3490 3490 3490 3490 3490 3490 3479 3479 3479 3479 3469 3469 3459 3459 3459 3449 3449 3449 3449 3459 3459 3459 3459 3459 3459 3469 3469 3469 3469 3459 3459 3459 3459 3449 3439 3439 3439 3439 3439 3419 3409 3409 3390 3390 3380 3380 3380 3370 3380 3380 3380 3380 3380 3380 3380 3370 3370 3351 3351 3342 3323 3323 3314 3314 3295 3295 3295 3295 3295 3295 3295 3295 3295 3295 3295 3295 3295 3295 3295 3286 3286 3277 3268 3268 3259 3250 3250 3241 3241 3241 3241 3241 3241 3250 3259 3268 3268 3286 3286 3314 3323 3323 3342 3342 3351 3351 3370 3380 3380 3390 3409 3419 3419 3439 3449 3449 3449 3449 3459 3449 3449 3449 3449 3449 3439 3449 3449 3449 3449 3449 3449 3449 3449 3449 3439 3439 3419 3409 3409 0 0 3380 0 0 0 0 0 0
0 0 0 0 0 0 0 0 0 0 0 0 0 0 0 3891 3891 3891 3891 3879 3879 3879 3879 3879 3879 3879 3879 3879 3879 3879 3879 3879 3879 3866 3866 3866 3866 3866 3866 3853 3853 3853 3853 3841 3841 3841 3853 3853 3853 3853 3853 3853 3853 3853 3853 3853 3853 3853 3853 3853 3853 3853 3841 3841 3841 3841 3841 3829 3829 3841 3841 3841 3853 3853 3866 3866 3866 3866 3866 3866 3866 3866 3866 3866 3866 3866 3866 3866 3866 3866 3866 3866 3866 3866 3853 3853 3853 3853 3853 3853 3853 3853 3853 3853 3853 3853 3853 3853 3853 3853 3853 3853 3853 3853 3853 3853 3841 3841 3841 3841 3829 3829 3829 3829 3829 3816 3816 3816 3816 3816 3816 3816 3816 3816 3816 3804 3804 3792 3768 3756 3732 3732 3708 3685 3651 3618 3607 3574 3563 3531 3510 3500 3469 3419 3380 3342 3295 3277 3259 3250 3232 3215 3197 3180 3155 3121 3073 3026 2995 2980 2972 2965 2958 0 0 0 0 0 0 0 0 0 0 0 0 0 0 0 0 0 0 0 0 0 0 0 0 1040 1041 1043 1043 1043 1044 1045 1045 1046 1046 1045 1045 1044 1043 1041 1040 1040 1040 1040 1038 1037 3720 3708 3720 3720 3720 3720 3720 3720 3720 3720 3720 3720 3720 3720 3720 3720 3720 3732 3732 3756 3756 3756 3732 3756 3756 3732 3732 3720 3708 3708 3685 3685 3685 3674 3674 3674 3674 3674 3674 3674 3674 3674 3674 3674 3685 3685 3685 3685 3685 3685 3708 3708 3708 3708 3708 3685 3685 3685 3674 3674 3674 3674 3651 3651 3651 3651 3640 3640 3640 3640 3640 3640 3640 3618 3618 3618 3618 3618 3618 3618 3618 3640 3640 3640 3640 3640 3651 3651 3651 3651 3651 3651 3674 3674 3651 3651 3651 3651 3651 3674 3674 3685 3685 3708 3708 3720 3720 3720 3720 3720 3708 3708 3685 3685 3674 3651 3651 3651 3651 3651 3640 3640 3640 3640 3640 3640 3640 3640 3640 3640 3618 3618 3607 3596 3596 3596 3585 3574 3574 3563 3563 3563 3553 3553 3553 3553 3553 3553 3563 3563 3563 3574 3585 3585 3585 3596 3607 3618 3618 3640 3640 3618 3640 3640 3640 3651 3651 3651 3674 3674 3685 3685 3685 3685 3685 3685 3685 3685 3674 3674 3674 3651 3651 3640 3618 3607 3596 3585 3574 3563 3553 3553 3553 3553 3542 3542 3542 3542 3542 3542 3542 3542 3542 3542 3542 3531 3531 3521 3510 3510 3510 3500 3500 3500 3490 3479 3469 3459 3459 3449 3439 3439 3419 3419 3419 3419 3439 3439 3439 3439 3449 3449 3449 3459 3459 3459 3449 3449 3449 3449 3449 3439 3419 3409 3409 3390 3390 3390 3390 3380 3380 3380 3390 3390 3390 3390 3380 3390 3409 3419 3439 3449 3459 3469 3479 3490 3490 3500 3500 3500 3500 3500 3500 3500 3490 3490 3490 3490 3490 3490 3490 3479 3479 3479 3469 3469 3469 3469 3469 3469 3469 3469 3469 3479 3479 3490 3490 3490 3490 3500 3500 3500 3500 3490 3490 3490 3490 3479 3469 3459 3459 3449 3449 3449 3439 3439 3419 3419 3409 3409 3390 3390 3390 3390 3390 3390 3390 3390 3380 3380 3370 3370 3351 3351 3342 3342 3323 3323 3323 3323 3314 3314 3314 3314 3323 3323 3323 3323 3323 3323 3323 3323 3323 3314 3314 3295 3295 3286 3277 3277 3268 3268 3259 3259 3259 3259 3268 3277 3286 3295 3314 3323 3342 3351 3370 3370 3380 3390 3390 3409 3419 3439 3439 3439 3459 3459 3469 3469 3479 3479 3469 3469 3469 3459 3459 3459 3459 3459 3449 3459 3459 3449 3449 3449 3449 3439 3439 3439 3439 3419 3409 3390 0 0 0 0 3370 0 0 0 0 0
0 0 0 0 0 0 0 0 0 0 0 0 0 0 3917 3904 3904 3891 3891 3891 3891 3891 3891 3891 3891 3891 3891 3891 3891 3891 3891 3879 3879 3879 3879 3879 3879 3879 3866 3866 3866 3866 3866 3866 3866 3866 3866 3866 3866 3866 3866 3866 3866 3866 3866 3866 3866 3866 3866 3866 3866 3866 3866 3866 3866 3866 3866 3866 3853 3853 3866 3866 3866 3866 3866 3866 3879 3879 3879 3879 3879 3879 3879 3879 3879 3879 3879 3866 3866 3866 3866 3866 3866 3866 3866 3866 3866 3866 3866 3866 3866 3866 3866 3866 3866 3866 3866 3866 3866 3866 3866 3866 3866 3866 3866 3866 3866 3866 3866 3853 3853 3853 3853 3841 3841 3841 3841 3829 3829 3829 3829 3829 3829 3829 3841 3829 3829 3816 3804 3804 3792 3768 3732 3720 3685 3651 3618 3596 3563 3542 3521 3500 3479 3439 3380 3342 3295 3277 3259 3241 3232 3206 3197 3163 3130 0 3041 2995 2972 2958 2950 2943 2943 0 0 0 0 0 0 0 0 0 0 0 0 0 0 0 0 0 0 0 0 0 0 0 0 1041 1041 1043 1043 1044 1045 1045 1046 1047 1047 1046 1046 1044 1043 1041 1040 1040 1040 1040 1038 1037 3756 3732 3756 3756 3756 3756 3756 3756 3756 3768 3768 3768 3756 3756 3768 3768 3768 3792 3768 3768 3792 3792 3792 3768 3768 3768 3768 3756 3732 3720 3720 3708 3708 3708 3708 3708 3708 3708 3708 3708 3708 3708 3708 3708 3708 3708 3720 3720 3720 3720 3720 3720 3720 3720 3720 3720 3708 3708 3708 3708 3685 3685 3685 3685 3674 3674 3674 3674 3674 3674 3651 3651 3640 3640 3640 3640 3640 3640 3640 3640 3651 3651 3651 3651 3651 3674 3674 3685 3685 3685 3685 3685 3708 3685 3685 3685 3674 3674 3674 3674 3685 3685 3708 3720 3720 3732 3756 3756 3756 3756 3756 3732 3732 3720 3720 3708 3708 3685 3685 3685 3685 3685 3685 3685 3674 3674 3674 3674 3674 3651 3640 3640 3618 3607 3607 3607 3596 3585 3585 3574 3574 3574 3574 3563 3563 3574 3574 3574 3574 3574 3585 3596 3596 3596 3607 3618 3618 3640 3640 3651 3640 3651 3651 3651 3651 3674 3674 3674 3674 3685 3685 3685 3685 3685 3685 3708 3708 3708 3708 3708 3685 3685 3674 3674 3651 3640 3618 3607 3596 3596 3585 3574 3574 3563 3563 3563 3553 3553 3553 3553 3553 3553 3542 3542 3542 3542 3531 3521 3521 3521 3510 3510 3510 3510 3500 3500 3490 3490 3479 3469 3459 3459 3459 3459 3449 3459 3459 3459 3459 3469 3469 3469 3479 3469 3469 3469 3469 3469 3469 3459 3459 3449 3439 3419 3419 3419 3419 3409 3409 3409 3419 3419 3439 3439 3439 3439 3439 3449 3449 3459 3469 3479 3490 3500 3500 3500 3500 3500 3510 3510 3500 3500 3500 3500 3500 3500 3500 3500 3500 3500 3490 3490 3490 3479 3479 3479 3469 3469 3479 3479 3479 3479 3490 3500 3500 3500 3500 3510 3510 3510 3521 3510 3510 3510 3510 3510 3500 3500 3490 3479 3479 3469 3469 3459 3459 3459 3449 3449 3439 3439 3419 3419 3409 3409 3419 3409 3409 3390 3409 3390 3390 3380 3370 3370 3351 3351 3351 3342 3351 3351 3342 3342 3342 3351 3351 3351 3351 3351 3370 3351 3351 3351 3351 3351 3342 3323 3323 3323 3314 3295 3286 3286 3286 3286 3286 3286 3295 3314 3323 3342 3351 3370 3380 3390 3409 3419 3419 3439 3449 3459 3459 3469 3469 3469 3479 3490 3490 3490 3490 3490 3479 3479 3479 3469 3469 3459 3469 3469 3459 3469 3459 3449 3449 3449 3439 3439 3439 3419 3419 3419 3419 3409 3390 3390 3390 3380 3380 0 0 0 0 0
0 0 0 0 0 0 0 0 0 0 0 0 0 3917 3917 3917 3917 3904 3891 3891 3891 3904 3904 3904 3904 3904 3891 3891 3891 3891 3891 3891 3891 3891 3891 3891 3879 3879 3879 3879 3879 3879 3879 3879 3879 3879 3879 3879 3879 3879 3879 3879 3879 3879 3879 3879 3879 3879 3879 3879 3879 3879 3879 3879 3879 3879 3879 3879 3866 3866 3866 3879 3879 3879 3879 3879 3879 3879 3891 3891 3891 3891 3891 3891 3891 3879 3879 3879 3879 3879 3879 3879 3879 3879 3879 3879 3879 3879 3879 3879 3879 3879 3879 3879 3879 3879 3879 3879 3879 3879 3879 3879 3879 3879 3879 3879 3879 3879 3866 3866 3866 3866 3866 3866 3853 3853 3853 3853 3853 3853 3853 3853 3853 3853 3866 3866 3866 3853 3841 3829 3816 3804 3792 3756 3720 3674 3651 3618 3585 3542 3521 3500 3479 3439 3380 3342 3295 3268 3259 3241 3232 3215 3189 3155 3105 3065 3010 2980 2958 2943 2936 2921 2907 0 0 0 0 0 0 0 0 0 0 0 0 0 0 0 0 0 0 0 0 0 0 0 0 1042 1043 1043 1044 1044 1046 1047 1047 1047 1047 1047 1045 1044 1044 1042 1040 1040 1040 1040 1039 1037 3768 3768 3768 3768 3768 3792 3792 3792 3792 3792 3792 3792 3792 3804 3804 3804 3804 3804 3816 3816 3816 3816 3816 3816 3804 3792 3792 3768 3768 3756 3732 3732 3732 3720 3720 3720 3720 3720 3720 3732 3732 3732 3732 3732 3732 3732 3732 3732 3732 3756 3756 3756 3732 3732 3732 3732 3732 3732 3732 3720 3720 3720 3720 3720 3720 3708 3708 3708 3708 3685 3685 3674 3651 3651 3651 3651 3640 3640 3640 3651 3651 3651 3651 3674 3685 3685 3708 3720 3720 3720 3732 3732 3720 3720 3708 3708 3685 3674 3685 3685 3685 3708 3720 3720 3732 3756 3768 3768 3792 3792 3792 3768 3768 3756 3756 3756 3732 3732 3720 3720 3732 3720 3720 3720 3720 3720 3708 3708 3685 3674 3651 3640 3640 3618 3618 3618 3607 3596 3596 3585 3585 3585 3585 3585 3585 3585 3585 3585 3596 3596 3596 3607 3618 3618 3640 3640 3640 3651 3651 3674 3674 3651 3674 3674 3674 3674 3674 3674 3685 3685 3685 3708 3708 3708 3708 3720 3720 3720 3720 3720 3720 3720 3708 3708 3685 3674 3674 3651 3640 3640 3618 3618 3607 3596 3596 3585 3585 3574 3574 3563 3553 3553 3553 3542 3542 3542 3542 3531 3531 3531 3521 3521 3521 3521 3510 3510 3510 3500 3500 3490 3490 3490 3479 3479 3479 3479 3490 3490 3490 3490 3490 3490 3500 3500 3490 3490 3490 3490 3479 3479 3469 3459 3449 3439 3439 3439 3439 3439 3439 3439 3439 3459 3459 3459 3469 3469 3469 3479 3490 3490 3500 3500 3510 3510 3510 3510 3510 3510 3510 3510 3510 3510 3510 3510 3500 3500 3500 3500 3500 3500 3500 3490 3490 3490 3490 3479 3479 3479 3479 3490 3490 3500 3500 3510 3510 3510 3521 3521 3521 3531 3542 3531 3531 3521 3521 3521 3510 3510 3500 3500 3500 3490 3490 3479 3469 3469 3469 3469 3459 3449 3449 3449 3439 3439 3439 3419 3419 3409 3409 3409 3390 3390 3380 3380 3380 3380 3370 3370 3380 3380 3370 3380 3380 3380 3380 3390 3390 3390 3390 3380 3380 3380 3380 3370 3380 3370 3370 3351 3351 3342 3342 3323 3314 3314 3314 3323 3323 3342 3370 3380 3390 3409 3419 3439 3459 3459 3469 3479 3479 3490 3500 3500 3500 3500 3500 3500 3500 3500 3500 3500 3490 3490 3490 3479 3479 3469 3469 3469 3469 3459 3459 3449 3449 3459 3449 3439 3439 3439 3419 3419 3419 3409 3390 3390 3390 3390 3380 3380 0 0 0 0
0 0 0 0 0 0 0 0 0 0 0 0 3930 3917 3917 3917 3917 3917 3904 3904 3904 3904 3917 3917 3917 3917 3917 3917 3904 3904 3904 3904 3904 3904 3904 3891 3891 3891 3891 3891 3891 3891 3891 3879 3879 3879 3891 3891 3891 3891 3891 3891 3891 3891 3891 3891 3891 3891 3891 3891 3891 3891 3891 3891 3891 3891 3891 3891 3891 3879 3879 3879 3891 3879 3879 3891 3891 3891 3891 3891 3891 3891 3891 3891 3891 3891 3891 3891 3891 3891 3891 3879 3879 3879 3879 3879 3879 3879 3879 3891 3891 3891 3891 3891 3891 3891 3891 3891 3891 3891 3891 3891 3891 3891 3891 3891 3891 3879 3879 3879 3879 3879 3866 3866 3866 3866 3866 3866 3866 3866 3866 3866 3866 3866 3879 3879 3866 3866 3866 3853 3841 3841 3816 3804 3768 3732 3674 3640 3607 3553 3531 3510 3479 3439 3390 3351 3314 3277 3259 3241 3232 3206 3180 3146 3089 0 2987 2958 2943 2914 2900 2885 2864 2851 2837 0 0 0 0 0 0 0 0 0 0 0 0 0 0 0 0 0 0 0 0 0 0 0 1042 1043 1044 1044 1044 1046 1046 1047 1046 1047 1046 1044 1044 1042 1040 1040 1040 1040 1038 0 3804 3804 3804 3804 3804 3804 3804 3816 3816 3816 3816 3829 3829 3829 3829 3829 3829 3829 3829 3829 3829 3841 3829 3829 3829 3816 3816 3816 3804 3792 3792 3768 3768 3768 3768 3768 3768 3768 3768 3768 3768 3768 3768 3768 3768 3768 3768 3768 3768 3768 3768 3792 3792 3792 3792 3768 3756 3756 3756 3756 3756 3732 3732 3732 3732 3732 3732 3732 3720 3720 3720 3708 3685 3685 3674 3674 3674 3674 3674 3674 3674 3674 3685 3708 3708 3720 3732 3732 3756 3768 3768 3768 3768 3756 3732 3720 3720 3708 3685 3685 3708 3708 3720 3732 3756 3768 3768 3792 3792 3804 3804 3804 3804 3792 3792 3792 3768 3768 3768 3768 3768 3768 3756 3756 3756 3732 3720 3720 3708 3685 3674 3651 3651 3640 3640 3640 3618 3618 3607 3607 3596 3596 3607 3596 3596 3607 3607 3607 3607 3618 3640 3640 3651 3651 3674 3674 3674 3685 3685 3685 3685 3685 3674 3674 3685 3685 3674 3674 3685 3685 3685 3708 3708 3708 3708 3720 3732 3732 3732 3732 3732 3732 3732 3732 3720 3720 3720 3708 3685 3674 3674 3651 3651 3640 3640 3618 3607 3596 3596 3585 3563 3563 3553 3553 3553 3542 3542 3542 3542 3542 3542 3531 3531 3531 3521 3521 3521 3510 3510 3510 3500 3500 3500 3500 3500 3500 3500 3500 3500 3510 3510 3510 3510 3510 3500 3500 3500 3500 3490 3490 3479 3469 3459 3459 3449 3459 3459 3459 3469 3469 3469 3479 3490 3490 3500 3500 3500 3500 3510 3510 3510 3521 3521 3521 3521 3521 3521 3521 3521 3521 3521 3521 3510 3510 3510 3510 3510 3510 3510 3510 3500 3500 3500 3500 3490 3490 3490 3490 3500 3500 3500 3500 3510 3521 3521 3531 3542 3542 3542 3553 3553 3542 3542 3542 3542 3531 3521 3510 3510 3500 3500 3500 3500 3490 3490 3479 3479 3479 3479 3469 3459 3459 3459 3449 3449 3439 3439 3419 3419 3419 3409 3409 3409 3409 3409 3409 3390 3390 3409 3409 3409 3409 3409 3419 3419 3419 3419 3439 3439 3419 3419 3419 3409 3419 3419 3409 3409 3390 3390 3380 3370 3370 3370 3370 3351 3370 3370 3380 3409 3409 3419 3449 3459 3469 3479 3490 3500 3500 3500 3510 3510 3510 3510 3510 3510 3510 3510 3500 3500 3500 3500 3490 3490 3490 3479 3479 3469 3469 3459 3459 3459 3459 3459 3449 3449 3449 3449 3439 3419 0 0 3409 3390 3390 3390 3390 3380 0 0 0 0 0
0 0 0 0 0 0 0 0 0 0 0 0 3930 3930 3930 3930 3930 3917 3917 3917 3917 3917 3917 3917 3917 3917 3917 3917 3917 3917 3917 3917 3917 3917 3917 3917 3917 3917 3917 3904 3904 3904 3904 3891 3891 3891 3904 3904 3891 3891 3891 3891 3904 3904 3891 3891 3891 3904 3904 3904 3904 3904 3904 3904 3904 3904 3904 3904 3904 3904 3891 3891 3891 3891 3891 3891 3891 3904 3904 3904 3904 3904 3904 3904 3904 3904 3904 3891 3891 3891 3891 3891 3891 3891 3891 3891 3891 3891 3891 3891 3904 3904 3904 3904 3904 3917 3917 3917 3917 3917 3917 3917 3917 3917 3904 3904 3904 3891 3891 3891 3891 3879 3879 3879 3879 3879 3866 3866 3879 3879 3879 3879 3879 3879 3891 3891 3879 3879 3879 3866 3866 3866 3853 3841 3816 3792 3756 3720 3674 3585 3542 3521 3500 3459 3390 3370 3314 3286 3259 3241 3232 3206 3180 3105 3049 3003 2972 2943 2907 2864 2858 2837 2830 2817 0 0 0 0 0 0 0 0 0 0 0 0 0 0 0 0 0 0 0 0 0 0 0 0 1043 1043 1043 1043 1044 1044 1044 1044 1045 1045 1045 1044 1044 1041 1041 1040 1040 1039 1038 0 3816 3816 3829 3829 3829 3829 3829 3829 3841 3841 3841 3841 3841 3841 3853 3853 3853 3853 3853 3853 3853 3853 3853 3853 3853 3841 3841 3841 3829 3829 3816 3816 3816 3816 3816 3804 3804 3804 3804 3816 3804 3804 3804 3804 3804 3804 3804 3804 3804 3804 3804 3804 3804 3816 3804 3804 3804 3804 3792 3792 3792 3792 3792 3768 3768 3768 3768 3756 3756 3756 3756 3732 3720 3720 3720 3708 3708 3708 3708 3708 3720 3720 3720 3732 3732 3756 3768 3792 3792 3804 3816 3816 3804 3792 3768 3756 3732 3720 3708 3708 3708 3720 3720 3732 3756 3768 3792 3804 3816 3816 3816 3816 3816 3816 3804 3804 3804 3804 3792 3804 3804 3792 3804 3792 3792 3768 3756 3732 3720 3720 3685 3674 3674 3651 3651 3651 3640 3640 3618 3618 3618 3618 3618 3618 3618 3640 3640 3640 3640 3651 3651 3674 3685 3685 3685 3708 3708 3708 3708 3708 3685 3685 3685 3685 3685 3685 3685 3685 3685 3685 3685 3708 3708 3720 3720 3732 3732 3756 3756 3756 3768 3768 3768 3768 3756 3756 3756 3732 3720 3720 3708 3708 3685 3685 3674 3651 3640 3618 3607 3596 3585 3574 3563 3553 3553 3553 3553 3542 3553 3553 3542 3542 3542 3542 3542 3531 3531 3521 3521 3521 3510 3510 3510 3510 3510 3510 3510 3510 3510 3521 3521 3521 3521 3521 3521 3510 3510 3510 3510 3500 3500 3490 3479 3479 3469 3479 3479 3490 3490 3500 3500 3510 3521 3521 3521 3521 3521 3531 3531 3542 3542 3542 3542 3542 3542 3542 3531 3531 3531 3531 3531 3521 3521 3521 3521 3521 3521 3521 3510 3510 3510 3510 3500 3500 3500 3500 3500 3500 3500 3500 3510 3510 3521 3521 3542 3542 3542 3553 3563 3563 3563 3553 3553 3542 3542 3542 3521 3510 3510 3500 3500 3500 3500 3500 3490 3490 3490 3490 3490 3479 3469 3469 3469 3459 3459 3449 3449 3449 3439 3439 3419 3419 3419 3419 3419 3419 3419 3419 3439 3439 3439 3439 3449 3449 3449 3459 3459 3459 3459 3459 3459 3449 3449 3459 3449 3449 3449 3439 3439 3419 3409 3409 3409 3390 3390 3409 3409 3419 3439 3449 3459 3469 3479 3500 3500 3510 3510 3510 3521 3521 3521 3521 3521 3521 3521 3510 3510 3510 3500 3500 3500 3500 3490 3490 3479 3469 3469 3469 3469 3459 3459 3449 3459 3459 3449 3449 3449 3449 3439 3419 3419 3419 3419 3419 3409 3409 3409 3409 0 0 0 0
0 0 0 0 0 0 0 0 0 0 0 0 3943 3943 3930 3930 3930 3930 3930 3930 3930 3930 3930 3930 3930 3930 3930 3930 3930 3930 3930 3930 3930 3930 3930 3930 3930 3930 3930 3930 3917 3917 3917 3917 3917 3917 3917 3917 3917 3917 3917 3917 3917 3917 3917 3917 3917 3917 3917 3917 3917 3917 3917 3917 3917 3917 3917 3917 3917 3917 3917 3917 3917 3917 3917 3917 3917 3917 3917 3917 3917 3917 3917 3917 3917 3917 3917 3917 3904 3904 3904 3904 3904 3904 3891 3904 3904 3904 3904 3917 3917 3917 3917 3917 3930 3930 3930 3930 3930 3930 3930 3930 3930 3930 3930 3917 3917 3917 3917 3904 3904 3891 3891 3891 3891 3879 3879 3879 3879 3891 3891 3891 3891 3891 3904 3904 3891 3891 3891 3879 3879 3879 3879 3866 3866 3841 3816 3768 3732 3674 3596 3553 3510 3479 3419 3380 3323 3295 3268 3241 3232 3215 3172 3105 3041 2987 2950 2900 2830 2777 2777 2764 2758 2745 0 0 0 0 0 0 0 0 0 0 0 0 0 0 0 0 0 0 0 0 0 0 0 0 1041 1041 1042 1042 1043 1043 1044 1044 1044 1044 1044 1044 1043 1041 1040 1040 1040 1039 1038 0 3841 3841 3841 3841 3853 3853 3853 3853 3853 3866 3866 3866 3866 3866 3866 3866 3866 3866 3866 3866 3866 3866 3866 3866 3866 3866 3866 3853 3853 3841 3841 3841 3841 3841 3841 3841 3841 3841 3841 3841 3841 3841 3841 3841 3841 3841 3841 3841 3841 3841 3841 3841 3841 3841 3841 3829 3829 3829 3829 3816 3816 3816 3816 3804 3804 3804 3804 3792 3792 3792 3792 3768 3756 3756 3756 3732 3732 3732 3732 3756 3756 3756 3768 3768 3768 3792 3804 3816 3816 3829 3829 3829 3816 3804 3792 3768 3732 3732 3708 3708 3708 3720 3720 3732 3756 3768 3792 3792 3816 3816 3816 3816 3816 3816 3816 3816 3816 3816 3816 3816 3816 3816 3816 3816 3816 3804 3792 3768 3732 3732 3720 3685 3685 3674 3674 3674 3674 3651 3651 3651 3651 3651 3651 3651 3651 3651 3651 3674 3674 3685 3685 3685 3708 3720 3720 3720 3720 3720 3720 3720 3720 3720 3708 3708 3708 3708 3708 3685 3685 3708 3708 3708 3720 3732 3732 3732 3756 3756 3768 3768 3792 3792 3792 3792 3792 3792 3792 3792 3768 3768 3768 3756 3732 3720 3720 3708 3674 3651 3640 3607 3596 3585 3574 3563 3553 3553 3553 3553 3553 3553 3553 3553 3553 3553 3553 3542 3542 3542 3531 3531 3521 3521 3521 3521 3521 3521 3521 3531 3531 3542 3542 3542 3542 3542 3531 3531 3521 3521 3521 3510 3510 3500 3500 3500 3500 3500 3500 3510 3510 3521 3521 3531 3542 3542 3553 3553 3553 3553 3553 3553 3553 3553 3553 3553 3553 3542 3542 3542 3542 3542 3542 3542 3531 3531 3531 3531 3531 3531 3531 3521 3521 3510 3510 3510 3500 3500 3500 3500 3500 3500 3510 3510 3521 3521 3542 3542 3553 3553 3563 3574 3563 3563 3553 3553 3542 3542 3521 3521 3510 3510 3500 3500 3500 3500 3500 3500 3500 3500 3500 3490 3490 3479 3479 3469 3459 3459 3449 3449 3449 3449 3439 3439 3439 3439 3449 3449 3449 3449 3459 3459 3469 3469 3479 3479 3479 3490 3479 3490 3490 3490 3490 3479 3479 3490 3479 3479 3479 3469 3469 3459 3449 3439 3439 3439 3439 3439 3449 3449 3459 3469 3479 3500 3500 3510 3510 3521 3521 3531 3531 3542 3531 3531 3531 3521 3521 3521 3510 3510 3510 3510 3500 3490 3490 3490 3479 3469 3469 3459 3459 3459 3459 3459 3459 3459 3459 3459 3449 0 0 0 3439 3439 3439 3439 3419 3419 3419 0 0 0 0 0
0 0 0 0 0 0 0 0 0 0 0 0 3970 3957 3957 3957 3943 3930 3930 3930 3930 3930 3930 3943 3943 3943 3957 3957 3957 3957 3957 3957 3957 3943 3943 3943 3943 3943 3943 3943 3943 3930 3930 3930 3930 3930 3930 3930 3930 3930 3930 3930 3930 3930 3930 3930 3930 3930 3930 3930 3930 3930 3930 3930 3930 3930 3930 3930 3930 3930 3930 3930 3930 3930 3930 3930 3930 3930 3930 3930 3930 3930 3930 3917 3917 3917 3917 3917 3917 3917 3917 3917 3917 3917 3917 3917 3917 3917 3917 3930 3930 3930 3930 3930 3943 3957 3957 3957 3957 3957 3957 3957 3957 3943 3943 3943 3930 3930 3930 3917 3917 3917 3917 3917 3904 3904 3891 3891 3891 3904 3904 3904 3904 3917 3917 3917 3917 3917 3917 3904 3891 3891 3891 3891 3879 3879 3866 3829 3816 3756 3674 3585 3542 3500 3459 3409 3342 3314 3277 3250 3241 3206 3155 3073 2980 0 2851 2784 2745 2732 2732 2726 2713 2707 0 0 0 0 0 0 0 0 0 0 0 0 0 0 0 0 0 0 0 0 0 0 0 0 1040 1040 1040 1040 1041 1041 1041 1041 1042 1043 1043 1043 1042 1041 1040 1040 1040 1039 0 0 3853 3853 3866 3866 3866 3866 3866 3866 3866 3866 3879 3879 3879 3879 3879 3879 3879 3879 3879 3879 3879 3879 3879 3879 3879 3866 3866 3866 3866 3866 3866 3866 3866 3866 3866 3866 3866 3866 3866 3866 3866 3866 3866 3866 3866 3866 3866 3866 3866 3866 3866 3866 3866 3866 3866 3866 3866 3853 3853 3841 3841 3841 3829 3829 3829 3829 3829 3816 3816 3816 3804 3804 3792 3792 3792 3792 3792 3792 3792 3792 3792 3804 3804 3804 3816 3829 3829 3841 3841 3841 3841 3829 3829 3804 3804 3768 3756 3720 3720 3708 3708 3720 3720 3732 3756 3756 3768 3804 3804 3816 3816 3816 3816 3816 3816 3829 3829 3829 3829 3829 3841 3841 3841 3841 3829 3816 3804 3792 3768 3756 3732 3720 3720 3708 3708 3708 3708 3708 3685 3674 3685 3674 3674 3685 3674 3685 3685 3685 3708 3708 3720 3720 3720 3720 3732 3732 3732 3732 3732 3732 3732 3720 3720 3720 3720 3720 3720 3708 3708 3708 3720 3720 3732 3732 3732 3756 3768 3768 3768 3792 3792 3804 3804 3816 3816 3816 3816 3816 3816 3816 3804 3804 3792 3768 3756 3732 3708 3685 3674 3640 3618 3607 3585 3574 3563 3563 3563 3563 3563 3563 3563 3563 3563 3563 3563 3553 3553 3553 3542 3542 3542 3542 3542 3542 3542 3542 3542 3542 3542 3553 3553 3553 3553 3553 3553 3542 3542 3542 3531 3531 3521 3521 3510 3510 3510 3510 3521 3521 3531 3542 3553 3553 3574 3585 3585 3596 3596 3596 3585 3585 3574 3574 3563 3563 3553 3553 3553 3553 3553 3553 3542 3542 3542 3542 3542 3542 3553 3542 3542 3542 3531 3521 3521 3521 3510 3510 3510 3510 3510 3510 3510 3510 3521 3521 3542 3542 3553 3553 3574 3574 3574 3563 3553 3542 3542 3531 3521 3510 3510 3500 3500 3500 3500 3500 3500 3500 3500 3500 3500 3500 3490 3490 3479 3479 3469 3469 3469 3469 3469 3459 3459 3459 3459 3459 3469 3469 3469 3479 3490 3490 3490 3500 3500 3500 3500 3510 3510 3510 3510 3510 3500 3500 3500 3510 3500 3500 3500 3500 3490 3490 3479 3469 3469 3469 3469 3469 3479 3479 3490 3500 3500 3510 3510 3521 3531 3531 3542 3542 3553 3553 3553 3542 3542 3542 3531 3531 3521 3510 3510 3500 3500 3500 3490 3490 3479 3469 3469 3469 3469 3469 3469 3459 3469 3469 3469 3459 0 0 0 0 0 3459 0 0 0 0 0 0 0 0 0 0
0 0 0 0 0 0 0 0 0 0 0 0 0 3997 3983 3970 3970 3957 3957 3957 3943 3943 3957 3957 3957 3970 3970 3970 3970 3983 3983 3983 3983 3983 3983 3983 3970 3970 3970 3970 3970 3970 3957 3957 3957 3957 3957 3957 3943 3943 3943 3943 3943 3943 3943 3943 3943 3943 3943 3957 3957 3957 3957 3957 3957 3957 3957 3957 3957 3957 3957 3957 3943 3943 3943 3943 3943 3943 3930 3930 3930 3930 3930 3930 3930 3930 3930 3930 3917 3917 3917 3930 3930 3930 3930 3930 3930 3930 3930 3943 3957 3957 3957 3970 3983 3983 3983 3983 3983 3983 3983 3983 3983 3970 3970 3957 3957 3943 3943 3930 3930 3930 3930 3930 3917 3917 3917 3917 3917 3917 3917 3917 3930 3930 3930 3930 3930 3930 3930 3917 3917 3917 3917 3904 3904 3891 3879 3879 3866 3816 3768 3685 3585 3531 3490 3419 3351 3295 3277 3250 3232 3206 3130 3003 0 0 2758 2726 2701 2670 2676 2658 2652 2647 0 0 0 0 0 0 0 0 0 0 0 0 0 0 0 0 0 0 0 0 0 0 0 0 1039 1038 1038 1038 1039 1040 1040 1040 1040 1040 1040 1040 1040 1040 1040 1039 1038 1038 0 0 3866 3866 3866 3866 3879 3879 3879 3879 3879 3879 3879 3891 3891 3891 3891 3891 3904 3904 3904 3891 3891 3891 3891 3891 3879 3879 3879 3879 3879 3879 3879 3866 3879 3879 3879 3879 3879 3879 3879 3879 3879 3879 3879 3879 3879 3879 3879 3879 3879 3879 3879 3879 3879 3879 3879 3879 3879 3879 3879 3866 3866 3866 3866 3853 3853 3853 3853 3841 3841 3841 3829 3829 3829 3816 3816 3816 3816 3816 3816 3816 3829 3829 3829 3841 3841 3841 3853 3853 3853 3853 3853 3841 3829 3816 3804 3768 3756 3720 3708 3708 3720 3720 3720 3720 3732 3756 3768 3792 3804 3816 3816 3816 3816 3816 3816 3829 3841 3841 3841 3853 3853 3853 3853 3853 3841 3841 3816 3804 3792 3792 3768 3756 3732 3732 3720 3720 3720 3720 3708 3708 3708 3708 3708 3708 3708 3708 3708 3708 3720 3732 3732 3732 3732 3756 3756 3756 3756 3756 3756 3756 3756 3756 3732 3732 3732 3732 3732 3732 3732 3732 3732 3732 3732 3756 3768 3768 3768 3792 3792 3804 3804 3804 3816 3829 3829 3829 3841 3841 3841 3829 3829 3829 3816 3804 3792 3768 3732 3720 3685 3674 3640 3618 3607 3585 3585 3574 3585 3585 3574 3574 3574 3585 3585 3585 3574 3574 3574 3563 3563 3553 3553 3553 3553 3553 3553 3553 3553 3563 3574 3574 3574 3574 3585 3574 3574 3563 3563 3553 3553 3553 3542 3542 3531 3531 3531 3542 3542 3542 3553 3563 3574 3596 3607 3618 3640 3651 3651 3640 3618 3618 3596 3596 3585 3574 3574 3563 3553 3553 3553 3553 3553 3553 3553 3553 3553 3553 3553 3553 3553 3553 3542 3542 3531 3521 3521 3521 3510 3521 3510 3510 3510 3521 3531 3531 3542 3553 3553 3563 3585 3585 3574 3563 3553 3553 3542 3531 3521 3510 3510 3500 3500 3500 3500 3500 3500 3500 3500 3500 3500 3500 3500 3500 3490 3490 3479 3479 3490 3479 3479 3479 3479 3479 3479 3479 3490 3490 3490 3500 3500 3500 3510 3510 3510 3521 3521 3521 3521 3521 3521 3521 3521 3521 3521 3510 3510 3510 3510 3510 3500 3500 3500 3500 3500 3500 3500 3500 3500 3510 3510 3510 3521 3521 3531 3542 3553 3553 3553 3563 3563 3574 3563 3563 3553 3553 3542 3542 3521 3510 3510 3510 3500 3490 3490 3490 3479 3479 3479 3479 3479 3479 3479 3469 3469 3469 3469 0 0 0 0 0 0 3469 0 0 0 0 0 0 0 0 0 0
0 0 0 0 0 0 0 0 0 0 0 0 0 4010 4010 3997 3997 3983 3983 3983 3970 3970 3970 3983 3983 3997 3997 3997 4010 4010 4010 4010 4010 4010 4010 4010 4010 4010 3997 3997 3997 3997 3997 3983 3983 3983 3983 3983 3983 3983 3970 3970 3970 3970 3970 3970 3970 3970 3970 3983 3983 3983 3983 3983 3983 3997 3997 3997 3997 3997 3983 3983 3983 3970 3970 3970 3970 3957 3957 3957 3957 3957 3943 3943 3943 3943 3930 3930 3930 3930 3930 3930 3930 3930 3943 3943 3943 3957 3970 3970 3983 3983 3997 4010 4010 4038 4038 4010 4010 4010 4010 4010 4010 3997 3983 3983 3970 3970 3957 3957 3943 3943 3943 3943 3930 3930 3930 3930 3930 3930 3930 3930 3943 3957 3957 3957 3957 3957 3943 3930 3930 3930 3930 3930 3930 3917 3917 3904 3891 3879 3853 3804 3674 3574 3521 3469 3370 3295 3277 3250 3232 3189 0 2950 0 0 2713 2658 2612 2594 2589 2589 2583 2577 0 0 0 0 0 0 0 0 0 0 0 0 0 0 0 0 0 0 0 0 0 0 0 0 1035 1032 1032 1032 1034 1034 1034 1034 1035 1037 1038 1039 1039 1038 1037 1037 1036 1036 0 0 3879 3879 3879 3879 3879 3891 3891 3891 3891 3891 3891 3904 3904 3904 3917 3917 3917 3917 3917 3917 3917 3917 3917 3904 3891 3891 3891 3891 3891 3891 3891 3891 3891 3891 3891 3891 3891 3891 3891 3891 3891 3891 3891 3891 3891 3891 3891 3891 3891 3891 3891 3891 3891 3891 3891 3891 3891 3891 3891 3879 3879 3879 3879 3879 3866 3866 3866 3866 3866 3866 3853 3853 3853 3841 3841 3841 3841 3841 3841 3853 3853 3853 3866 3866 3866 3866 3866 3866 3866 3866 3866 3853 3841 3816 3804 3792 3768 3732 3720 3720 3732 3720 3732 3732 3756 3756 3768 3804 3804 3816 3816 3816 3816 3816 3829 3829 3841 3841 3853 3866 3866 3866 3866 3853 3853 3841 3829 3816 3804 3792 3792 3792 3768 3768 3768 3768 3756 3756 3756 3732 3732 3732 3732 3732 3732 3732 3732 3732 3732 3732 3756 3756 3756 3756 3756 3756 3756 3756 3756 3756 3756 3756 3756 3756 3756 3756 3756 3756 3756 3756 3756 3768 3768 3768 3768 3792 3804 3804 3804 3804 3816 3816 3829 3829 3841 3841 3853 3853 3853 3853 3853 3841 3829 3816 3804 3792 3756 3732 3708 3685 3651 3640 3618 3607 3596 3596 3596 3596 3596 3596 3596 3596 3607 3607 3607 3607 3596 3596 3596 3585 3585 3585 3574 3574 3574 3585 3585 3585 3596 3596 3607 3607 3607 3607 3607 3596 3596 3585 3574 3563 3553 3553 3553 3553 3553 3553 3553 3563 3574 3596 3607 3640 3651 3674 3685 3685 3685 3674 3651 3651 3618 3607 3607 3585 3585 3574 3574 3563 3563 3574 3574 3574 3574 3574 3574 3574 3574 3574 3563 3553 3553 3542 3542 3531 3521 3521 3521 3521 3521 3521 3521 3521 3531 3542 3553 3563 3563 3574 3596 3596 3585 3574 3553 3553 3542 3521 3510 3510 3500 3500 3500 3500 3500 3500 3500 3500 3500 3500 3500 3500 3500 3500 3490 3490 3490 3490 3500 3490 3490 3490 3490 3490 3490 3500 3500 3500 3500 3510 3510 3521 3521 3531 3531 3542 3542 3542 3542 3542 3542 3542 3542 3542 3531 3521 3521 3521 3521 3521 3521 3510 3510 3510 3510 3510 3521 3521 3521 3521 3531 3542 3542 3553 3553 3563 3563 3574 3585 3585 3596 3596 3585 3585 3574 3553 3553 3542 3531 3521 3510 3510 3500 3490 3490 3479 3479 3479 3479 3479 3490 3490 3490 3479 3479 3479 0 3479 3479 3479 3490 3479 3490 3490 3490 3490 3490 3490 3479 3479 0 0 0 0
0 0 0 0 0 0 0 0 0 0 0 0 0 0 4051 4051 4038 4010 4010 4010 3997 3997 3997 4010 4010 4038 4038 4051 4051 4051 4051 4051 4079 4079 4079 4079 4079 4051 4051 4051 4038 4038 4038 4038 4010 4010 4010 4010 4010 4010 4010 3997 3997 3997 3997 3997 3997 3997 3997 4010 4010 4010 4010 4010 4010 4038 4038 4038 4038 4038 4038 4010 4010 4010 3997 3997 3997 3997 3983 3983 3983 3970 3970 3970 3970 3957 3957 3957 3957 3957 3943 3957 3957 3957 3957 3970 3970 3983 3997 3997 4010 4038 4051 4051 4079 4079 4079 4051 4051 4051 4051 4051 4038 4038 4010 4010 3997 3997 3983 3983 3970 3970 3970 3970 3970 3957 3957 3957 3957 3957 3970 3970 3970 3983 3983 3983 3983 3983 3970 3970 3957 3957 3957 3957 3957 3943 3930 3930 3917 3917 3891 3866 3804 3674 3553 3500 3409 3314 3277 3241 3215 3130 0 0 0 0 0 0 0 2561 2561 2561 2550 2550 0 0 0 0 0 0 0 0 0 0 0 0 0 0 0 0 0 0 0 0 0 0 0 0 1031 1029 1028 1026 1028 1028 1028 1028 1029 1031 1032 1035 1035 1035 1034 1035 1034 1034 0 0 3891 3891 3891 3891 3891 3904 3904 3904 3917 3917 3917 3917 3917 3930 3930 3930 3930 3930 3930 3930 3930 3930 3930 3917 3917 3904 3904 3904 3904 3904 3904 3904 3904 3904 3904 3904 3904 3904 3904 3904 3904 3904 3904 3904 3904 3904 3917 3917 3917 3917 3917 3917 3917 3917 3917 3917 3917 3917 3917 3904 3904 3904 3891 3891 3891 3891 3879 3879 3879 3879 3879 3866 3866 3866 3866 3866 3866 3866 3866 3866 3879 3879 3879 3879 3879 3891 3891 3891 3879 3879 3866 3866 3841 3829 3816 3804 3792 3756 3732 3732 3732 3732 3756 3756 3756 3768 3792 3804 3804 3816 3816 3816 3816 3816 3829 3841 3841 3853 3853 3866 3866 3866 3866 3866 3853 3841 3829 3816 3816 3804 3804 3792 3792 3792 3792 3804 3792 3792 3768 3756 3756 3756 3756 3756 3732 3732 3732 3732 3732 3756 3756 3756 3756 3756 3756 3756 3756 3768 3768 3768 3768 3768 3768 3768 3768 3768 3768 3768 3768 3768 3792 3792 3792 3804 3804 3804 3804 3804 3816 3816 3829 3829 3829 3841 3841 3853 3853 3866 3866 3866 3853 3853 3841 3829 3816 3804 3768 3756 3720 3708 3685 3674 3651 3640 3618 3618 3618 3618 3618 3618 3618 3618 3640 3640 3640 3640 3640 3640 3640 3640 3618 3618 3618 3607 3607 3607 3618 3618 3618 3640 3640 3640 3651 3651 3640 3640 3618 3607 3607 3585 3585 3574 3563 3563 3574 3574 3585 3596 3607 3618 3651 3685 3708 3708 3720 3732 3720 3720 3685 3674 3651 3640 3618 3607 3596 3585 3585 3585 3585 3596 3596 3596 3596 3607 3607 3596 3596 3585 3574 3574 3563 3553 3542 3542 3531 3531 3542 3542 3531 3521 3531 3542 3542 3553 3553 3563 3574 3585 3596 3596 3585 3563 3553 3542 3531 3521 3510 3510 3500 3500 3500 3500 3500 3500 3500 3500 3500 3500 3500 3500 3500 3500 3500 3500 3500 3500 3500 3500 3500 3500 3500 3500 3510 3510 3510 3510 3521 3521 3531 3542 3542 3542 3553 3553 3563 3563 3553 3553 3553 3553 3553 3542 3542 3542 3542 3542 3531 3531 3531 3531 3531 3521 3531 3531 3542 3542 3542 3542 3542 3553 3553 3553 3563 3585 3596 3596 3607 3618 3607 3618 3607 3596 3596 3574 3553 3542 3531 3521 3510 3510 3500 3500 3490 3490 3490 3490 3490 3479 3490 3490 3500 3490 3490 0 0 0 0 0 3500 3500 3500 3500 3500 3500 3500 0 0 0 0 0 0 0
0 0 0 0 0 0 0 0 0 0 0 0 0 0 4122 4093 4079 4051 4051 4051 4038 4038 4038 4038 4051 4079 4079 4093 4093 4093 4122 4122 4122 4122 4122 4122 4122 4122 4093 4093 4093 4079 4079 4079 4079 4051 4051 4051 4051 4051 4051 4051 4051 4051 4038 4038 4038 4038 4051 4051 4051 4051 4051 4079 4079 4079 4079 4079 4079 4079 4079 4079 4051 4051 4051 4038 4038 4038 4010 4010 4010 3997 3997 3997 3997 3983 3983 3983 3983 3970 3983 3983 3983 3983 3997 3997 4010 4038 4038 4051 4079 4079 4093 4093 4122 4122 4122 4122 4093 4093 4093 4079 4079 4051 4051 4038 4038 4038 4010 4010 3997 3997 3997 3997 3997 3997 3997 3997 3997 3997 3997 3997 3997 4010 4010 4010 4010 4010 3997 3997 3983 3983 3970 3983 3983 3970 3970 3957 3943 3943 3917 3891 0 0 3640 3542 3459 3351 3286 3250 3206 3073 0 0 0 2612 0 2550 2544 2544 2539 2539 2533 2528 0 0 0 0 0 0 0 0 0 0 0 0 0 0 0 0 0 0 0 0 0 0 0 0 1025 1022 1022 1020 1021 1021 1020 1021 1022 1025 1029 1030 1031 1031 1032 1032 1031 1032 0 0 3904 3904 3917 3917 3917 3917 3917 3917 3930 3930 3930 3930 3943 3943 3957 3957 3970 3970 3970 3970 3957 3957 3943 3930 3930 3930 3917 3917 3917 3917 3917 3917 3917 3917 3917 3917 3917 3917 3917 3917 3930 3930 3917 3917 3930 3930 3930 3930 3930 3930 3930 3930 3930 3930 3930 3930 3930 3930 3930 3930 3917 3917 3917 3917 3904 3904 3891 3891 3891 3891 3891 3891 3891 3891 3891 3891 3891 3891 3891 3891 3891 3904 3904 3904 3904 3904 3904 3891 3891 3879 3879 3866 3853 3841 3829 3804 3792 3768 3768 3768 3756 3768 3768 3792 3792 3792 3792 3804 3816 3829 3816 3816 3816 3829 3841 3853 3866 3866 3866 3866 3879 3879 3866 3866 3866 3853 3841 3829 3829 3829 3816 3816 3816 3804 3816 3816 3816 3804 3792 3768 3768 3768 3768 3756 3732 3732 3732 3732 3756 3756 3756 3756 3756 3768 3768 3768 3768 3768 3768 3768 3768 3768 3792 3792 3792 3792 3804 3804 3804 3804 3816 3816 3816 3816 3816 3816 3829 3829 3829 3829 3829 3841 3841 3853 3853 3866 3866 3866 3866 3866 3866 3853 3841 3841 3829 3816 3792 3792 3756 3732 3720 3708 3685 3674 3674 3651 3651 3651 3651 3651 3651 3674 3674 3685 3685 3685 3685 3685 3685 3685 3674 3674 3651 3651 3651 3651 3651 3674 3674 3685 3685 3685 3685 3708 3685 3674 3674 3651 3640 3618 3618 3596 3596 3585 3596 3607 3618 3640 3651 3674 3708 3720 3732 3756 3756 3768 3768 3732 3720 3708 3685 3651 3640 3618 3607 3607 3607 3607 3607 3618 3618 3618 3640 3640 3640 3618 3607 3607 3585 3596 3585 3563 3553 3553 3542 3542 3542 3542 3542 3542 3542 3542 3553 3553 3553 3574 3574 3585 3607 3596 3585 3563 3553 3542 3531 3521 3510 3500 3500 3500 3500 3500 3500 3500 3500 3500 3500 3500 3500 3510 3510 3510 3510 3510 3510 3510 3510 3510 3510 3510 3510 3510 3510 3521 3521 3521 3531 3542 3542 3553 3553 3563 3574 3574 3585 3585 3585 3574 3563 3563 3553 3553 3553 3553 3553 3542 3542 3542 3542 3542 3542 3542 3542 3542 3553 3553 3553 3553 3563 3563 3574 3585 3585 3596 3607 3618 3640 3640 3640 3640 3618 3618 3607 3585 3563 3553 3542 3521 3521 3510 3500 3500 3500 3490 3490 3490 3490 3490 3490 3490 3490 3490 0 0 3500 3500 3500 3500 3500 3500 3500 3500 3500 3500 3500 3500 3500 0 0 0 0 0
