0 0 0 0 0 0 0 0 0 0 0 0 0 4868 4868 4868 4848 4848 4848 4829 4829 4809 4809 4790 4770 4732 4713 4676 4658 4639 4603 4585 4550 4533 4533 4498 4498 4498 4498 4498 4498 4533 4550 4550 4585 4550 4550 4550 4585 4550 4550 4550 4550 4550 4550 4585 4585 4603 4639 4658 4676 4713 4732 4770 4790 4809 4809 4829 4829 4829 4809 4809 4790 4790 4770 4732 4713 4676 4658 4639 4639 4603 4603 4603 4585 4585 4603 4603 4603 4639 4658 4658 4658 4658 4658 4639 4639 4603 4603 4585 4585 4550 4550 4550 4533 4533 4550 4585 4585 4585 4603 4639 4658 4676 4676 4713 4732 4732 4732 4770 4770 4790 4790 4770 4790 4790 4770 4732 4732 4732 4732 4713 4676 4658 4658 4639 4639 4639 4603 4585 4603 4585 4585 4585 4585 4585 4550 4550 4585 4585 4585 4603 4658 4658 4676 4676 4658 4658 4658 4658 4639 4603 4585 4550 4533 4498 4464 4431 4398 4382 4349 4318 4286 4225 4180 4122 4079 4038 4010 0 0 0 0 0 0 0 0 0 0 0 0 0 0 0 0 0 1488 1496 1501 1503 1505 1507 1515 1521 1532 1532 1536 1536 0 4713 4732 4732 4732 4732 4770 4770 4770 4770 4770 4732 4732 4713 4713 4676 4658 4658 4639 4639 4639 4639 4603 4603 4603 4603 4603 4603 4603 4603 4603 4603 4603 4603 4603 4585 4585 4550 4550 4533 4533 4498 4481 4464 4464 4447 4431 4431 4431 4431 4431 4431 4431 4447 4447 4464 4481 4498 4498 4533 4533 4550 4550 4585 4585 4603 4603 4639 4658 4658 4658 4658 4658 4658 4639 4639 4603 4603 4603 4603 4585 4585 4550 4550 4533 4533 4498 4498 4481 4481 4481 4498 4498 4498 4481 4481 4481 4481 4481 4464 4447 4447 4431 4414 4414 4398 4398 4398 4398 4382 4382 4382 4382 4365 4349 4349 4333 4333 4318 4318 4318 4318 4302 4302 4302 4302 4286 4286 4286 4286 4302 4302 4302 4318 4318 4333 4333 4349 4365 4382 4398 4398 4414 4447 4464 4481 4498 4533 4533 4533 4533 4533 4498 4498 4481 4481 4464 4447 4447 4431 4414 4398 4398 4382 4382 4365 4349 4349 4349 4333 4333 4318 4318 4318 4302 4302 4302 4286 4286 4302 4302 4302 4302 4302 4302 4318 4318 4318 4318 4318 4318 4318 4318 4318 4318 4333 4333 4333 4333 4333 4333 4333 4349 4349 4349 4349 4349 4349 4349 4349 4349 4349 4349 4349 4349 4333 4333 4333 4333 4333 4318 4318 4318 4302 4286 4286 4286 4286 4286 4286 4286 4286 4286 4302 4302 4302 4302 4302 4302 4302 4286 4286 4286 4271 4271 4271 4271 4271 4271 4271 4255 4255 4271 4271 4271 4255 4255 4255 0 0 0 0 0 0 0 0 0 0 0 0 0 0 0 0 0 0 0 0 0 0 0 0 0 0 0 0 0 0 0 0 0 0 0 0 0 0 0 0 0 0 0 0 0 0 0 0 0 0 0 0 0 0 0 0 0 0 0 0 0 0 0 0 0 0 0 0 0 508 508 509 509 0 0 0 0 0 512 514 515 516 517 517 517 518 518 518 518 518 518 518 518 518 518 518 518 519 520 522 522 523 523 524 524 524 524 524 524 524 524 524 524 524 524 523 523 523 522 522 521 520 520 519 518 518 518 517 517 517 516 516 515 514 513 512 511 510 510 509 509 507 506 504 503 503 502 501 499 497 496 495 493 491 490 489 488 486 485 484 483 482 481 480 479 478 478 477 477 477 476 476 476 0
0 0 0 0 0 0 0 0 0 0 0 0 0 4888 4888 4868 4868 4868 4868 4848 4848 4829 4829 4809 4790 4770 4732 4713 4676 4658 4639 4639 4603 4585 4550 4550 4550 4550 4550 4550 4585 4585 4603 4639 4639 4639 4639 4639 4639 4639 4603 4639 4639 4639 4639 4639 4658 4658 4676 4713 4732 4770 4790 4809 4829 4848 4848 4868 4848 4868 4848 4848 4829 4829 4809 4790 4770 4732 4713 4713 4676 4676 4658 4658 4658 4658 4658 4658 4676 4676 4676 4676 4676 4676 4676 4676 4658 4639 4639 4603 4603 4585 4585 4585 4585 4585 4585 4603 4639 4658 4658 4676 4713 4732 4770 4770 4790 4809 4809 4829 4829 4829 4829 4829 4829 4829 4829 4809 4809 4809 4809 4770 4732 4713 4676 4676 4676 4658 4658 4639 4639 4639 4639 4603 4603 4603 4585 4585 4585 4603 4603 4639 4676 4713 4713 4713 4713 4676 4676 4713 4676 4658 4639 4585 4550 4533 4498 4464 4431 4398 4365 4333 4286 4240 4195 4122 4093 4051 0 0 0 0 0 0 0 0 0 0 0 0 0 0 0 0 0 0 1484 1496 1499 1503 1505 1509 1513 1519 1526 1530 1532 1532 1536 4732 4770 4770 4770 4770 4790 4790 4790 4790 4770 4770 4770 4732 4732 4713 4676 4676 4658 4658 4658 4658 4658 4658 4658 4639 4658 4658 4658 4676 4676 4676 4658 4658 4658 4658 4639 4639 4603 4603 4585 4550 4533 4533 4498 4481 4481 4464 4464 4464 4464 4464 4464 4464 4481 4498 4533 4533 4550 4550 4585 4585 4603 4639 4639 4658 4658 4676 4676 4713 4713 4713 4713 4676 4713 4676 4676 4676 4676 4658 4658 4639 4639 4603 4603 4585 4585 4550 4533 4533 4550 4550 4550 4550 4533 4533 4533 4533 4498 4498 4481 4464 4464 4447 4431 4431 4414 4414 4398 4398 4398 4382 4382 4382 4365 4349 4349 4349 4333 4333 4318 4318 4318 4318 4318 4318 4318 4318 4318 4318 4318 4318 4318 4333 4333 4333 4349 4365 4382 4398 4414 4431 4447 4481 4498 4533 4550 4585 4585 4603 4585 4585 4550 4550 4533 4498 4498 4481 4464 4447 4431 4431 4414 4398 4398 4382 4382 4365 4349 4349 4349 4333 4333 4318 4318 4318 4318 4318 4302 4302 4302 4318 4318 4318 4318 4318 4318 4333 4333 4333 4333 4333 4333 4333 4333 4333 4349 4349 4349 4349 4349 4365 4365 4365 4365 4382 4382 4382 4382 4382 4382 4382 4365 4365 4365 4349 4349 4349 4333 4333 4333 4318 4318 4318 4318 4318 4318 4318 4318 4318 4318 4318 4318 4318 4318 4318 4318 4318 4318 4318 4318 4318 4286 4286 4286 4286 4271 4271 4271 4271 4271 4271 4255 4255 0 0 0 0 0 0 0 0 0 0 0 0 0 0 0 0 0 0 0 0 0 0 0 0 0 0 0 0 0 0 0 0 0 0 0 0 0 0 0 0 0 0 0 0 0 0 0 0 0 0 0 0 0 0 0 0 0 0 0 0 0 0 0 0 0 0 0 0 0 0 0 0 508 508 508 508 509 509 509 510 510 511 511 513 514 515 516 517 517 517 517 517 518 517 517 517 517 517 517 517 517 517 517 518 518 518 519 520 520 522 522 522 523 523 523 523 523 523 523 523 522 522 521 520 520 519 518 518 518 517 517 517 517 516 515 515 514 513 511 511 510 510 509 509 508 506 505 504 503 503 501 500 498 497 496 495 493 491 490 489 488 486 485 484 483 482 482 480 479 478 478 477 477 477 476 476 0 0
0 0 0 0 0 0 0 0 0 0 0 0 0 4888 4888 4888 4888 4888 4888 4868 4868 4848 4848 4829 4829 4809 4790 4770 4732 4713 4713 4676 4658 4658 4639 4639 4639 4639 4639 4639 4639 4658 4658 4676 4713 4713 4713 4713 4713 4713 4676 4676 4676 4676 4676 4713 4676 4713 4732 4770 4790 4809 4829 4848 4868 4888 4888 4888 4888 4888 4888 4868 4868 4868 4848 4829 4809 4809 4790 4770 4770 4732 4732 4732 4732 4713 4713 4732 4732 4732 4732 4732 4732 4732 4732 4713 4713 4676 4658 4658 4639 4639 4639 4639 4603 4639 4658 4658 4676 4713 4732 4770 4790 4790 4809 4829 4848 4848 4868 4868 4868 4868 4888 4888 4888 4888 4868 4868 4868 4868 4848 4829 4809 4790 4732 4732 4732 4713 4676 4676 4676 4676 4676 4658 4658 4639 4639 4603 4639 4639 4639 4658 4713 4732 4770 4770 4732 4732 4732 4770 4732 4713 4676 4658 4603 4585 4550 4498 4464 4431 4398 4349 4318 4271 4225 4180 4122 4079 0 0 0 0 0 0 0 0 0 0 0 0 0 0 0 0 0 0 1488 1497 1499 1503 1505 1507 1513 1515 1524 1524 1526 1526 1530 4770 4770 4770 4790 4790 4809 4809 4809 4790 4790 4770 4770 4732 4732 4732 4713 4713 4676 4676 4676 4676 4676 4676 4676 4676 4713 4713 4713 4713 4713 4732 4732 4713 4713 4713 4676 4676 4676 4658 4658 4639 4603 4585 4550 4533 4533 4498 4498 4498 4498 4498 4498 4498 4533 4533 4550 4585 4585 4603 4603 4639 4658 4658 4676 4676 4713 4713 4713 4732 4770 4770 4732 4732 4770 4770 4732 4732 4732 4770 4732 4713 4713 4676 4658 4658 4639 4603 4603 4603 4603 4603 4603 4603 4585 4585 4585 4585 4550 4550 4533 4498 4481 4481 4464 4447 4431 4431 4431 4414 4414 4398 4398 4398 4382 4382 4365 4349 4349 4349 4333 4333 4333 4333 4333 4333 4333 4333 4333 4333 4333 4333 4333 4349 4349 4349 4365 4382 4398 4414 4447 4464 4481 4533 4550 4603 4639 4639 4639 4658 4639 4639 4603 4585 4550 4533 4533 4498 4498 4481 4464 4447 4447 4431 4414 4398 4398 4382 4382 4365 4349 4349 4349 4333 4333 4318 4318 4318 4318 4318 4318 4318 4318 4318 4318 4333 4333 4333 4333 4333 4333 4349 4349 4349 4349 4349 4365 4365 4365 4382 4382 4382 4382 4398 4398 4398 4398 4398 4398 4398 4398 4398 4382 4382 4382 4365 4365 4349 4349 4349 4333 4333 4333 4333 4318 4318 4318 4318 4318 4318 4333 4333 4318 4333 4318 4318 4318 4318 4318 4318 4318 4318 4318 4302 4302 4286 4286 4286 4286 4271 4271 4271 0 0 0 0 0 0 0 0 0 0 0 0 0 0 0 0 0 0 0 0 0 0 0 0 0 0 0 0 0 0 0 0 0 0 0 0 0 0 0 0 0 0 0 0 0 0 0 0 0 0 0 0 0 0 0 0 0 0 0 0 0 0 0 0 0 0 0 0 0 0 0 0 508 508 508 508 508 508 508 509 509 510 510 510 511 512 513 514 515 516 516 517 517 517 517 517 517 517 517 517 517 517 517 517 517 517 517 517 518 518 518 519 519 520 520 520 520 521 521 521 521 521 520 520 520 519 519 518 518 518 517 517 517 516 516 515 515 514 513 511 511 510 510 509 509 508 507 505 504 503 503 502 501 499 497 496 496 495 493 491 490 489 488 486 485 484 483 482 482 481 479 478 478 477 477 477 477 476 476 476
0 0 0 0 0 0 0 0 0 0 0 0 0 0 4888 4888 4888 4888 4888 4888 4888 4888 4868 4868 4848 4829 4829 4809 4790 4770 4770 4770 4732 4732 4713 4713 4713 4676 4676 4713 4713 4732 4732 4770 4790 4790 4790 4790 4790 4770 4770 4732 4732 4713 4732 4732 4732 4770 4790 4790 4809 4829 4848 4868 4888 4888 4909 4909 4909 4909 4909 4888 4888 4888 4888 4888 4868 4848 4848 4829 4829 4809 4809 4809 4809 4809 4790 4790 4790 4790 4790 4809 4790 4790 4790 4790 4770 4732 4732 4713 4713 4713 4676 4676 4676 4713 4732 4732 4770 4770 4809 4809 4829 4848 4868 4868 4888 4888 4888 4888 4909 4909 4909 4909 4909 4909 4888 4888 4888 4888 4888 4888 4848 4829 4809 4790 4790 4790 4770 4770 4770 4732 4732 4732 4713 4676 4658 4658 4658 4658 4658 4713 4770 4790 4809 4790 4790 4790 4790 4809 4790 4770 4732 4713 4676 4658 4603 4585 4533 4464 4414 4382 4349 4318 4271 4195 4136 0 0 0 0 0 0 0 0 0 0 0 0 0 0 0 0 0 0 0 0 1499 1503 1505 0 1509 1513 1515 1523 0 1526 1526 1530 4770 4790 4790 4790 4790 4809 4809 4809 4809 4809 4790 4770 4770 4732 4732 4732 4732 4713 4713 4713 4713 4713 4713 4713 4732 4732 4770 4770 4770 4770 4770 4770 4770 4770 4770 4732 4732 4713 4713 4676 4676 4658 4639 4603 4585 4585 4550 4550 4550 4550 4550 4550 4550 4550 4585 4603 4603 4639 4658 4658 4676 4676 4713 4713 4713 4732 4732 4770 4770 4790 4790 4790 4790 4809 4790 4790 4790 4809 4809 4790 4790 4770 4732 4732 4713 4676 4658 4658 4658 4658 4658 4658 4639 4639 4639 4639 4639 4603 4585 4550 4550 4533 4533 4498 4481 4481 4464 4464 4447 4447 4431 4431 4414 4398 4398 4382 4382 4382 4365 4365 4349 4349 4349 4349 4349 4349 4349 4349 4349 4349 4349 4349 4365 4382 4382 4398 4398 4431 4447 4464 4498 4533 4585 4603 4639 4658 4658 4676 4676 4658 4658 4639 4603 4585 4585 4550 4533 4533 4498 4498 4481 4464 4447 4447 4431 4414 4398 4398 4382 4382 4365 4349 4349 4349 4333 4333 4333 4333 4333 4333 4333 4333 4333 4333 4333 4349 4349 4349 4349 4349 4365 4365 4382 4382 4382 4382 4398 4398 4398 4398 4414 4414 4414 4414 4414 4414 4414 4414 4414 4414 4398 4398 4398 4398 4382 4382 4382 4365 4349 4349 4349 4349 4333 4333 4333 4333 4333 4333 4333 4333 4333 4333 4333 4333 4333 4333 4333 4333 4333 4318 4318 4318 4318 0 0 0 0 0 0 0 0 0 0 0 0 0 0 0 0 0 0 0 0 0 0 0 0 0 0 0 0 0 0 0 0 0 0 0 0 0 0 0 0 0 0 0 0 0 0 0 0 0 0 0 0 0 0 0 0 0 0 0 0 0 0 0 0 0 0 0 0 0 0 0 0 506 506 506 507 507 507 507 507 507 508 508 508 508 508 508 508 509 509 510 510 511 511 513 514 514 515 516 516 516 516 517 517 517 517 517 517 517 517 517 517 517 517 517 516 517 517 517 517 517 518 518 518 518 518 519 519 519 519 519 519 518 518 518 518 517 517 517 517 516 516 515 514 513 512 511 511 510 510 509 508 508 507 506 504 504 503 503 502 500 499 497 496 496 494 493 491 490 489 487 486 484 483 483 482 482 481 479 478 478 477 477 477 477 477 477 477
0 0 0 0 0 0 0 0 0 0 0 0 0 0 0 4909 4909 4909 4888 4888 4888 4888 4888 4888 4888 4868 4848 4848 4848 4829 4829 4829 4809 4790 4790 4790 4790 4790 4770 4790 4790 4809 4829 4829 4829 4829 4848 4848 4829 4829 4809 4809 4790 4790 4790 4790 4790 4790 4809 4809 4829 4848 4868 4888 4888 4909 4909 4909 4909 4929 4909 4909 4909 4909 4909 4909 4888 4888 4888 4888 4888 4868 4868 4868 4868 4848 4848 4848 4848 4848 4848 4829 4829 4829 4829 4809 4809 4809 4790 4790 4790 4790 4770 4790 4790 4790 4809 4829 4829 4848 4868 4868 4888 4888 4888 4888 4909 4909 4909 4909 4909 4929 4929 4929 4929 4929 4929 4909 4909 4909 4909 4909 4888 4888 4868 4848 4848 4848 4829 4809 4829 4809 4809 4809 4790 4770 4732 4713 4713 4713 4713 4732 4790 4809 4829 4829 4829 4829 4848 4848 4848 4829 4809 4790 4770 4713 4676 4639 4603 4550 4481 4414 4382 4333 4318 4271 4195 4136 0 0 0 0 0 0 0 0 0 0 0 0 0 0 0 0 0 0 0 1501 1505 1507 1507 1509 1513 1515 1523 1523 1524 1524 1526 4790 4790 4790 4809 4790 4809 4809 4809 4809 4809 4790 4790 4770 4770 4770 4770 4732 4732 4732 4732 4770 4770 4770 4770 4770 4790 4790 4790 4790 4790 4790 4809 4809 4809 4809 4790 4790 4790 4770 4732 4713 4713 4676 4658 4658 4639 4639 4603 4603 4603 4603 4603 4603 4603 4639 4639 4658 4676 4713 4713 4713 4732 4732 4732 4732 4732 4732 4770 4790 4790 4809 4809 4809 4809 4809 4829 4829 4848 4848 4848 4829 4829 4809 4790 4790 4732 4732 4713 4713 4713 4676 4676 4676 4676 4676 4658 4658 4658 4639 4639 4603 4585 4585 4550 4550 4533 4533 4498 4498 4481 4481 4464 4447 4431 4431 4414 4398 4398 4398 4398 4382 4382 4382 4382 4382 4382 4382 4382 4382 4382 4382 4382 4398 4398 4414 4431 4447 4464 4481 4533 4550 4585 4639 4658 4676 4676 4713 4713 4676 4676 4676 4658 4639 4603 4603 4585 4550 4550 4533 4533 4498 4498 4481 4464 4447 4431 4414 4398 4398 4398 4382 4382 4365 4365 4349 4349 4349 4349 4349 4349 4349 4349 4349 4349 4349 4349 4365 4365 4382 4382 4382 4382 4398 4398 4398 4414 4414 4431 4431 4447 4447 4447 4447 4464 4447 4447 4447 4447 4447 4431 4431 4414 4398 4398 4398 4382 4382 4382 4365 4365 4365 4349 4349 4349 4349 4349 4349 4349 4349 4349 4349 4349 4349 4349 4349 0 0 0 0 0 0 0 0 0 0 0 0 0 0 0 0 0 0 0 0 0 0 0 0 0 0 0 0 0 0 0 0 0 0 0 0 0 0 0 0 0 0 0 0 0 0 0 0 0 0 0 0 0 0 0 0 0 0 0 0 0 0 0 0 0 0 0 0 0 0 0 0 0 0 0 0 0 0 0 0 505 505 505 506 506 507 506 507 507 507 508 508 507 508 508 508 509 509 509 510 510 511 511 513 513 514 514 515 515 516 516 516 516 516 517 517 517 516 516 516 516 515 515 515 515 515 516 516 516 517 517 517 517 517 518 518 518 518 518 518 518 517 517 517 517 517 517 516 515 515 514 513 512 511 511 510 510 509 508 507 507 506 505 504 503 503 502 501 499 498 497 496 495 494 492 490 489 489 487 485 484 483 483 482 482 481 479 479 478 478 477 477 477 477 477 477
0 0 0 0 0 0 0 0 0 0 0 0 0 0 0 4929 4909 4909 4909 4909 4909 4909 4909 4909 4888 4888 4888 4888 4888 4888 4888 4868 4868 4848 4848 4829 4829 4809 4809 4809 4809 4829 4829 4829 4868 4848 4868 4848 4848 4848 4848 4829 4829 4829 4829 4829 4829 4848 4848 4848 4868 4868 4888 4909 4909 4909 4929 4929 4929 4929 4929 4929 4929 4929 4929 4929 4909 4909 4909 4909 4909 4909 4888 4888 4888 4888 4888 4888 4888 4888 4888 4868 4868 4868 4868 4868 4868 4868 4848 4848 4868 4868 4848 4868 4868 4868 4868 4888 4888 4888 4909 4909 4909 4909 4909 4909 4929 4929 4929 4929 4929 4929 4929 4929 4929 4950 4929 4929 4929 4929 4950 4929 4909 4909 4888 4888 4909 4888 4888 4868 4888 4868 4868 4868 4848 4829 4809 4790 4790 4770 4770 4790 4809 4848 4868 4868 4868 4868 4888 4888 4888 4888 4868 4829 4829 4790 4770 4732 4676 4603 4550 4481 4414 4382 4349 4333 4286 0 0 0 0 0 0 0 0 0 0 0 0 0 0 0 0 0 0 0 0 0 0 1507 1509 1509 1513 1515 1523 1523 1523 1524 1526 4790 4809 4809 4809 4809 4809 4809 4809 4809 4809 4809 4790 4790 4790 4790 4790 4770 4770 4770 4770 4770 4770 4790 4790 4790 4809 4809 4809 4809 4809 4809 4829 4829 4829 4829 4829 4809 4809 4809 4790 4770 4732 4732 4713 4713 4676 4676 4658 4658 4658 4658 4658 4658 4658 4676 4676 4713 4732 4770 4770 4770 4770 4770 4770 4770 4770 4770 4770 4790 4790 4809 4829 4829 4848 4848 4848 4868 4868 4888 4888 4888 4888 4848 4848 4829 4809 4790 4770 4770 4770 4732 4732 4732 4732 4713 4713 4713 4713 4713 4676 4676 4658 4658 4639 4603 4603 4585 4585 4550 4550 4533 4533 4498 4481 4481 4464 4464 4447 4447 4431 4431 4414 4414 4414 4414 4414 4398 4398 4398 4414 4414 4414 4431 4431 4447 4464 4481 4498 4533 4585 4603 4639 4676 4676 4713 4713 4713 4713 4713 4676 4676 4658 4639 4603 4603 4585 4585 4585 4550 4550 4550 4533 4498 4481 4464 4447 4431 4431 4414 4398 4398 4398 4382 4382 4382 4382 4365 4365 4365 4349 4349 4365 4365 4365 4382 4382 4382 4398 4398 4398 4398 4414 4431 4447 4447 4464 4481 4481 4481 4481 4498 4498 4498 4498 4481 4481 4481 4464 4464 4464 4447 4447 4431 4414 4414 4398 4398 4382 4382 4382 4382 4365 4365 4365 4349 4349 4349 4349 4349 4349 4349 4349 4349 0 0 0 0 0 0 0 0 0 0 0 0 0 0 0 0 0 0 0 0 0 0 0 0 0 0 0 0 0 0 0 0 0 0 0 0 0 0 0 0 0 0 0 0 0 0 0 0 0 0 0 0 0 0 0 0 0 0 0 0 0 0 0 0 0 0 0 0 0 0 0 0 0 0 0 508 0 0 505 505 505 505 504 504 504 505 505 506 506 506 506 507 507 507 507 507 507 508 508 509 509 509 510 510 510 511 511 512 513 513 514 514 515 515 515 515 516 516 516 516 515 515 515 515 514 514 514 514 514 514 514 515 515 516 516 516 517 517 517 517 517 517 517 517 517 517 516 516 516 515 515 514 513 512 511 510 510 509 509 508 507 506 506 505 504 503 503 502 501 500 499 497 496 496 495 493 491 490 489 488 487 485 484 483 483 482 481 481 479 479 478 478 477 477 477 477 477 477
0 0 0 0 0 0 0 0 0 0 0 0 0 0 0 0 4929 4929 4929 4909 4909 4909 4909 4909 4909 4909 4909 4909 4909 4909 4888 4888 4888 4888 4868 4868 4848 4829 4829 4809 4829 4848 4848 4868 4868 4888 4888 4888 4888 4868 4868 4868 4868 4868 4848 4848 4848 4848 4868 4868 4868 4888 4888 4909 4909 4929 4929 4929 4950 4950 4950 4950 4929 4929 4929 4929 4929 4929 4929 4929 4929 4929 4929 4929 4929 4929 4929 4909 4909 4909 4909 4909 4909 4909 4909 4909 4909 4909 4909 4909 4909 4909 4909 4909 4909 4909 4909 4929 4929 4929 4929 4929 4929 4929 4929 4950 4950 4950 4950 4950 4950 4971 4971 4971 4971 4971 4971 4971 4971 4971 4971 4971 4950 4929 4929 4929 0 4929 4929 4909 4909 4909 4909 4909 4888 4888 4848 4829 4829 4809 4790 4809 4848 4888 4888 4888 4888 4909 4909 4909 4909 4909 4909 4888 4868 4848 4809 4790 4732 4676 4639 4585 4498 4447 4398 0 0 0 0 0 0 0 0 0 0 0 0 0 0 0 0 0 0 0 0 0 0 0 0 1509 1509 1509 1513 1515 1521 1523 1523 1524 1526 4809 4809 4829 4829 4829 4829 4829 4829 4829 4829 4809 4809 4809 4809 4809 4790 4790 4790 4790 4790 4790 4790 4809 4809 4809 4829 4829 4829 4829 4829 4829 4829 4848 4848 4848 4848 4829 4829 4829 4829 4809 4790 4790 4770 4770 4732 4732 4732 4713 4713 4713 4713 4713 4713 4713 4732 4770 4790 4809 4809 4790 4790 4790 4790 4790 4770 4732 4770 4770 4790 4809 4809 4829 4848 4848 4868 4888 4888 4888 4888 4909 4888 4888 4868 4868 4829 4809 4809 4790 4790 4790 4790 4770 4770 4790 4790 4770 4770 4770 4770 4732 4713 4713 4713 4676 4676 4676 4658 4639 4639 4603 4585 4585 4550 4550 4533 4498 4498 4498 4498 4481 4481 4481 4464 4464 4464 4447 4447 4447 4464 4464 4464 4481 4481 4498 4533 4550 4585 4603 4639 4658 4676 4713 4713 4732 4732 4732 4732 4713 4713 4676 4676 4639 4639 4639 4603 4603 4603 4585 4550 4550 4550 4533 4498 4498 4481 4464 4447 4431 4414 4414 4398 4398 4398 4398 4382 4382 4382 4382 4382 4382 4382 4382 4382 4382 4398 4398 4414 4431 4431 4447 4464 4481 4498 4498 4533 4533 4550 4550 4550 4550 4550 4550 4533 4533 4533 4498 4498 4498 4481 4481 4464 4447 4447 4431 4414 4414 4398 4398 4398 4398 4382 4382 4382 4382 4365 4365 4365 4365 4365 4365 4382 0 0 0 0 0 0 0 0 0 0 0 0 0 0 0 0 0 0 0 0 0 0 0 0 0 0 0 0 0 0 0 0 0 0 0 0 0 0 0 0 0 0 0 0 0 0 0 0 0 0 0 0 0 0 0 0 0 0 0 0 0 0 0 0 0 0 0 0 0 0 0 0 0 0 510 0 505 505 505 504 504 504 504 504 504 504 504 504 504 504 505 505 506 506 506 507 507 507 507 508 508 509 509 509 510 510 510 510 511 511 512 512 513 513 514 514 515 515 515 515 515 515 514 514 513 513 512 512 512 512 512 512 512 513 513 514 514 514 515 515 516 516 516 516 516 516 516 515 515 515 514 514 513 512 511 510 510 509 509 508 507 506 505 504 504 503 503 502 501 500 499 497 497 496 495 494 493 491 490 489 488 487 485 484 483 483 482 481 481 479 479 478 0 477 477 477 477 477 477
0 0 0 0 0 0 0 0 0 0 0 0 0 0 0 0 4929 4929 4929 4909 4909 4909 4909 4929 4909 4909 4929 4909 4909 4909 4909 4909 4888 4888 4888 4868 4848 4829 4809 4809 4809 4829 4848 4848 4868 4868 4888 4888 4888 4868 4868 4868 4868 4868 4868 4868 4868 4868 4868 4868 4888 4888 4909 4909 4929 4929 4929 4950 4950 4971 4971 4950 4971 4971 4971 4971 4971 4971 4971 4971 4950 4971 4950 4950 4950 4950 4950 4950 4929 4929 4929 4929 4929 4929 4929 4929 4929 4929 4950 4950 4950 4950 4950 4950 4971 4971 4971 4971 4971 4971 4971 4971 4971 4971 4971 4971 4971 4971 4971 4971 4992 4992 4992 4992 4992 4992 4992 4992 4992 4992 4992 4992 4992 4971 4971 4971 0 0 4971 4971 4971 4950 4950 4929 4929 4909 4888 4888 4848 4829 4829 4848 4888 4888 4909 4909 4909 4929 4929 4950 4929 4929 4929 4909 4909 4888 4848 4829 4790 4732 4676 4639 4550 4481 0 0 0 0 0 0 0 0 0 0 0 0 0 0 0 0 0 0 0 0 0 0 0 0 1507 1509 1509 1511 1513 1515 1521 1523 1523 1524 1526 4829 4829 4848 4848 4848 4848 4848 4848 4848 4848 4848 4829 4829 4829 4829 4829 4829 4829 4829 4829 4829 4829 4829 4829 4829 4829 4829 4829 4848 4848 4848 4848 4848 4868 4868 4868 4848 4848 4848 4848 4829 4809 4809 4809 4790 4790 4790 4790 4770 4770 4770 4770 4770 4770 4790 4809 4829 4829 4848 4848 4829 4829 4809 4809 4790 4790 4770 4770 4770 4809 4829 4829 4848 4868 4868 4888 4909 4909 4909 4909 4929 4909 4909 4888 4888 4868 4848 4829 4829 4829 4809 4809 4809 4809 4809 4809 4809 4809 4809 4809 4790 4790 4790 4790 4770 4770 4732 4732 4713 4713 4676 4658 4658 4639 4603 4603 4603 4603 4585 4550 4550 4550 4550 4533 4533 4533 4533 4533 4533 4533 4550 4550 4550 4585 4585 4603 4639 4639 4658 4676 4713 4732 4732 4732 4770 4770 4732 4732 4732 4713 4713 4676 4658 4658 4658 4639 4639 4603 4603 4603 4585 4585 4550 4533 4533 4481 4481 4464 4464 4447 4431 4431 4414 4414 4398 4398 4398 4398 4398 4398 4398 4398 4398 4398 4414 4431 4431 4447 4464 4481 4498 4533 4550 4550 4585 4603 4603 4603 4603 4603 4639 4603 4603 4585 4585 4550 4550 4550 4533 4533 4498 4498 4481 4481 4464 4447 4431 4431 4431 4414 4398 4398 4398 4382 4382 4382 4382 4382 0 0 4382 0 0 0 0 0 0 0 0 0 0 0 0 0 0 0 0 0 0 0 0 0 0 0 0 0 0 0 0 0 0 0 0 0 0 0 0 0 0 0 0 0 0 0 0 0 0 0 0 0 0 0 0 0 0 0 0 0 0 0 0 0 0 0 0 0 0 0 0 0 0 0 520 516 513 510 509 506 504 504 504 504 504 504 504 503 503 504 504 504 504 504 504 504 504 504 505 505 505 506 506 507 507 508 508 508 509 509 509 510 510 510 511 511 511 512 513 513 514 514 514 514 514 514 513 513 512 512 511 511 511 511 511 511 511 511 511 511 511 512 512 513 514 514 514 514 514 514 514 514 514 514 513 512 511 511 510 510 509 509 508 507 506 505 504 504 503 503 502 501 500 499 498 497 496 496 495 494 493 491 490 489 488 487 485 484 483 483 482 481 480 479 479 478 478 477 477 477 477 477 477
0 0 0 0 0 0 0 0 0 0 0 0 0 0 4950 4929 4929 4929 4929 4909 4909 4909 4929 4929 4929 4929 4929 4929 4929 4929 4909 4909 4909 4888 4888 4848 4829 4809 4790 4790 4790 4790 4790 4809 4829 4848 4848 4848 4848 4848 4848 4848 4848 4848 4868 4848 4848 4868 4868 4868 4888 4888 4909 4929 4929 4929 4950 4950 4971 4971 4971 4971 4971 4971 4971 4971 4971 4971 4971 4971 4971 4971 4971 4971 4971 4971 4971 4971 4971 4971 4971 4971 4971 4971 4971 4971 4992 4992 4992 4992 4992 5013 5013 5013 5013 5013 5034 5034 5034 5013 5013 5013 5013 5013 5013 4992 4992 5013 4992 4992 5013 5013 5013 5013 5013 5034 5013 5034 5034 5034 5056 5034 5034 5013 4992 4992 5013 0 5013 4992 4992 4992 4992 4971 4971 4950 4929 4909 4888 4888 4868 4888 4888 4909 4909 4929 4929 4950 4971 4971 4971 4971 4950 4929 4929 4909 4888 4848 4829 4790 4732 4676 4603 0 0 0 0 0 0 0 0 0 0 0 0 0 0 0 0 0 0 0 0 0 0 0 0 0 1511 1513 1513 1513 1515 1515 1521 1521 1523 1524 1526 4868 4868 4868 4868 4868 4868 4868 4868 4868 4868 4868 4868 4868 4868 4868 4848 4848 4848 4848 4848 4848 4848 4848 4848 4848 4848 4848 4848 4848 4848 4868 4868 4868 4868 4868 4868 4868 4868 4868 4848 4848 4848 4829 4829 4829 4829 4829 4809 4809 4809 4809 4809 4809 4809 4829 4848 4868 4888 4888 4888 4868 4868 4848 4829 4809 4809 4790 4770 4790 4809 4848 4848 4868 4888 4888 4888 4909 4929 4929 4929 4929 4929 4909 4909 4909 4888 4888 4868 4848 4848 4848 4848 4829 4848 4848 4848 4848 4848 4848 4829 4829 4848 4829 4829 4809 4809 4809 4790 4790 4790 4770 4732 4713 4676 4676 4658 4658 4658 4639 4639 4639 4639 4603 4603 4603 4603 4603 4603 4603 4603 4639 4639 4658 4658 4658 4676 4676 4713 4713 4732 4770 4770 4770 4770 4790 4770 4770 4770 4770 4732 4713 4713 4676 4676 4676 4658 4658 4658 4658 4639 4603 4603 4585 4550 4550 4498 4498 4481 4464 4464 4447 4447 4431 4431 4431 4414 4414 4414 4414 4414 4414 4431 4431 4447 4447 4464 4481 4498 4533 4550 4585 4603 4603 4639 4658 4658 4658 4676 4676 4658 4676 4658 4658 4639 4639 4603 4585 4585 4585 4550 4550 4533 4533 4533 4498 4481 4481 4464 4464 4447 4431 4414 4398 4398 4398 4398 4382 0 0 0 0 0 0 0 0 0 0 0 0 0 0 0 0 0 0 0 0 0 0 0 0 0 0 0 0 0 0 0 0 0 0 0 0 0 0 0 0 0 0 0 0 0 0 0 0 0 0 0 0 0 0 0 0 0 0 0 0 0 0 0 0 0 0 0 0 0 0 0 0 0 0 519 0 0 509 506 506 504 503 503 503 503 503 503 503 503 503 503 503 503 503 503 503 503 503 503 504 504 504 504 504 505 506 506 507 507 508 508 508 509 509 510 510 510 511 511 511 512 513 513 513 513 513 513 513 512 512 511 511 511 510 510 510 510 510 510 510 510 510 510 511 511 511 512 512 512 512 513 513 513 512 512 511 511 511 510 510 509 509 508 507 506 504 504 503 503 503 502 501 500 499 498 497 497 496 495 495 493 492 490 490 489 488 486 485 484 483 483 482 481 481 479 479 478 478 477 477 477 477 477 477
0 0 0 0 0 0 0 0 0 0 0 0 0 0 4971 4971 4971 4971 4950 4929 4929 4929 4929 4929 4929 4929 4929 4929 4929 4929 4929 4909 4909 4888 4888 4848 4829 4809 4790 4770 4770 4732 4770 4790 4790 4809 4809 4829 4829 4829 4829 4829 4829 4829 4829 4848 4848 4848 4848 4848 4888 4888 4909 4929 4929 4950 4950 4971 4971 4971 4971 4971 4971 4971 4971 4992 4992 4992 4992 4992 4992 4992 4992 4992 4992 4992 4992 4992 4992 4992 4992 4992 4992 4992 5013 5013 5034 5034 5056 5077 5077 5099 5099 5099 5099 5099 5099 5099 5099 5099 5077 5077 5077 5056 5056 5056 5056 5056 5056 5056 5056 5056 5056 5056 5077 5077 5077 5056 5077 5077 5099 5077 5077 5077 5056 5056 5077 5077 5077 5056 5056 5034 5013 5013 4992 4971 4950 4929 4909 4888 4888 4888 4909 4909 4929 4929 4950 4971 4992 4992 4992 4992 4971 4971 4929 4909 4888 4888 4848 4809 4770 4713 4639 0 0 0 0 0 0 0 0 0 0 0 0 0 0 0 0 0 0 0 0 0 0 0 1513 1513 1513 1515 1515 1515 1515 1517 1521 1523 1523 1523 1526 4888 4888 4888 4888 4888 4888 4888 4888 4888 4888 4888 4888 4888 4888 4888 4888 4888 4888 4888 4888 4888 4888 4888 4888 4868 4868 4868 4868 4868 4868 4868 4868 4868 4888 4888 4888 4888 4888 4888 4888 4868 4868 4868 4868 4868 4848 4848 4848 4848 4848 4848 4848 4848 4868 4888 4888 4909 4909 4909 4909 4909 4888 4888 4888 4868 4848 4829 4829 4829 4848 4868 4888 4888 4888 4888 4909 4929 4929 4929 4971 4950 4950 4929 4929 4929 4909 4888 4888 4888 4888 4868 4868 4868 4868 4868 4868 4868 4888 4868 4868 4868 4868 4868 4868 4868 4848 4848 4848 4829 4829 4809 4790 4770 4770 4732 4732 4713 4676 4676 4676 4676 4676 4676 4676 4676 4676 4676 4676 4713 4713 4713 4713 4732 4732 4770 4770 4770 4790 4790 4790 4790 4809 4809 4809 4790 4790 4790 4770 4770 4770 4770 4732 4732 4732 4713 4713 4713 4676 4676 4658 4658 4639 4603 4603 4585 4550 4533 4498 4498 4481 4464 4464 4464 4447 4447 4447 4447 4447 4447 4447 4464 4464 4464 4481 4498 4533 4550 4585 4603 4639 4639 4658 4676 4713 4713 4713 4732 4732 4732 4713 4713 4676 4676 4658 4658 4639 4639 4639 4603 4603 4603 4585 4585 4585 4550 4533 4498 4498 4481 4464 4447 4431 4431 4414 4398 4398 0 0 0 0 0 0 0 0 0 0 0 0 0 0 0 0 0 0 0 0 0 0 0 0 0 0 0 0 0 0 0 0 0 0 0 0 0 0 0 0 0 0 0 0 0 0 0 0 0 0 0 0 0 0 0 0 0 0 0 0 0 0 0 0 0 0 0 0 0 0 0 0 0 0 0 0 503 503 503 503 503 503 503 503 503 503 503 502 502 502 502 502 502 502 502 502 502 503 503 503 503 503 503 503 504 504 504 504 505 505 506 507 507 508 509 509 509 510 510 510 511 511 511 512 512 512 512 512 512 511 511 511 510 510 510 510 509 509 509 509 509 509 509 509 510 510 510 510 511 511 511 511 511 511 511 511 511 510 510 510 509 509 508 507 506 505 504 503 503 503 502 501 500 499 498 497 497 496 496 495 494 493 491 490 490 489 488 486 485 484 483 483 482 481 481 480 479 478 478 477 477 477 477 477 477
0 0 0 0 0 0 0 0 0 0 0 0 0 0 0 4992 4992 4992 4971 4971 4971 4971 4971 4971 4971 4971 4971 4971 4950 4950 4929 4909 4909 4888 4868 4848 4809 4790 4770 4732 4713 4713 4713 4732 4770 4770 4770 4790 4790 4790 4790 4809 4809 4809 4809 4829 4829 4829 4848 4848 4868 4888 4909 4909 4929 4929 4950 4950 4971 4971 4971 4971 4971 4992 4992 4992 4992 4992 4992 4992 4992 5013 5013 5013 5013 5013 5013 5013 5013 5013 5013 5034 5034 5056 5056 5077 5099 5121 5166 5166 5189 5235 5235 5235 5235 5235 5235 5235 5189 5189 5189 5166 5166 5121 5121 5121 5099 5099 5099 5099 5099 5121 5121 5121 5121 5121 5121 5121 5121 5121 5121 5121 5121 5121 5099 5099 5121 5121 5121 5099 5099 5099 5077 5056 5034 5013 4992 4971 4929 4929 4909 4909 4929 4950 4950 4971 4971 4992 5013 5034 5034 5013 4992 4992 4971 4929 4909 4888 4868 4829 4790 4713 0 0 0 0 0 0 0 0 0 0 0 0 0 0 0 0 0 0 0 0 0 0 0 0 1513 1515 1515 1515 1515 1517 1517 1519 1523 1523 1524 1524 1526 4909 4909 4909 4909 4909 4929 4929 4929 4929 4929 4929 4929 4929 4929 4909 4909 4909 4909 4909 4909 4909 4888 4888 4888 4888 4888 4888 4888 4888 4888 4888 4888 4888 4888 4888 4888 4888 4888 4888 4888 4888 4888 4888 4888 4888 4888 4888 4888 4888 4888 4888 4888 4888 4888 4909 4909 4929 4950 4950 4950 4929 4929 4909 4909 4888 4888 4868 4868 4868 4888 4888 4888 4888 4909 4909 4929 4929 4950 4971 4971 4971 4971 4971 4950 4950 4929 4909 4909 4888 4888 4888 4888 4888 4888 4888 4888 4888 4888 4888 4888 4888 4888 4888 4888 4888 4888 4888 4888 4868 4848 4848 4829 4809 4790 4790 4770 4732 4732 4732 4732 4713 4732 4732 4732 4732 4732 4770 4770 4790 4790 4790 4790 4809 4809 4829 4829 4829 4829 4848 4848 4829 4848 4848 4829 4829 4809 4809 4809 4790 4790 4790 4770 4770 4770 4770 4732 4732 4732 4732 4713 4713 4676 4658 4639 4639 4585 4550 4550 4533 4498 4498 4498 4481 4481 4481 4481 4481 4481 4481 4498 4498 4498 4533 4533 4550 4603 4603 4639 4658 4676 4713 4732 4732 4770 4770 4770 4770 4790 4770 4770 4770 4732 4732 4713 4676 4676 4658 4658 4658 4658 4639 4639 4639 4603 4603 4585 4550 4550 4533 4498 4481 4464 4447 4431 4414 0 0 0 0 0 0 0 0 0 0 0 0 0 0 0 0 0 0 0 0 0 0 0 0 0 0 0 0 0 0 0 0 0 0 0 0 0 0 0 0 0 0 0 0 0 0 0 0 0 0 0 0 0 0 0 0 0 0 0 0 0 0 0 0 0 0 0 0 0 0 0 0 0 0 498 499 499 500 501 502 502 502 502 502 501 501 501 501 501 501 501 500 500 500 500 500 501 501 501 501 502 502 502 503 503 503 503 503 503 504 504 504 505 505 506 507 508 508 509 509 510 510 510 511 511 511 511 511 511 511 511 511 510 510 510 509 509 509 508 508 508 508 508 508 508 508 509 509 509 510 510 510 510 510 510 510 510 510 510 509 509 509 508 507 506 505 504 503 503 503 502 501 500 499 498 497 497 496 496 495 494 493 492 491 490 489 489 487 486 485 484 483 483 482 482 481 480 479 478 478 477 477 477 477 477 0
0 0 0 0 0 0 0 0 0 0 0 0 0 0 0 5013 5013 5013 4992 4992 4992 4992 4992 4992 4992 4992 4971 4971 4971 4950 4929 4929 4909 4888 4888 4848 4809 4790 4770 4713 4713 4676 4676 4676 4713 4732 4732 4732 4732 4732 4770 4770 4770 4790 4790 4790 4790 4809 4829 4829 4848 4868 4888 4909 4909 4929 4929 4929 4950 4971 4971 4971 4971 4971 4992 4992 4992 4992 4992 5013 5013 5013 5034 5034 5034 5034 5034 5034 5056 5034 5056 5056 5077 5099 5099 5166 5166 5189 5235 5258 5305 5329 5329 5329 5329 5329 5329 5329 5305 5305 5258 5258 5235 5235 5189 5189 5189 5189 5189 5189 5189 5189 5189 5189 5235 5235 5189 5189 5189 5189 5189 5189 5189 5189 5166 5166 5189 5189 5189 5166 5166 5166 5121 5099 5077 5056 5013 4992 4971 4971 4950 4950 4971 4971 4992 4992 5013 5034 5056 5077 5077 5056 5034 4992 4971 4929 4909 4888 4868 4829 4770 0 0 0 0 0 0 0 0 0 0 0 0 0 0 0 0 0 0 0 0 0 0 0 0 0 1515 1515 1515 1515 1517 1515 1519 1521 1524 1524 1524 1524 1526 4950 4950 4950 4929 4929 4950 4950 4950 4950 4950 4950 4950 4971 4950 4950 4950 4929 4929 4929 4929 4929 4909 4909 4909 4909 4909 4909 4888 4888 4888 4888 4888 4888 4888 4909 4909 4909 4909 4888 4888 4888 4888 4888 4888 4888 4888 4888 4888 4888 4888 4909 4909 4909 4909 4929 4950 4971 4971 4992 4992 4971 4971 4950 4929 4929 4909 4909 4909 4909 4909 4909 4909 4909 4909 4929 4929 4950 4971 4971 4971 4992 4992 4971 4971 4971 4929 4929 4929 4909 4909 4909 4909 4909 4909 4909 4909 4909 4909 4909 4909 4909 4909 4909 4909 4909 4888 4888 4888 4888 4888 4868 4848 4848 4829 4809 4790 4790 4770 4770 4770 4770 4770 4770 4790 4790 4790 4809 4829 4829 4848 4848 4868 4868 4868 4868 4868 4888 4888 4888 4868 4888 4868 4868 4868 4848 4848 4829 4829 4809 4809 4809 4809 4790 4809 4809 4809 4809 4790 4790 4770 4770 4732 4713 4676 4658 4639 4639 4603 4585 4550 4550 4550 4533 4533 4550 4533 4533 4533 4533 4550 4550 4585 4585 4603 4658 4658 4676 4713 4732 4770 4790 4790 4809 4809 4809 4809 4809 4809 4790 4790 4770 4770 4770 4732 4713 4713 4713 4713 4713 4676 4676 4676 4658 4658 4639 4639 4603 4585 4550 4533 4498 4481 4464 0 0 0 0 0 0 0 0 0 0 0 0 0 0 0 0 0 0 0 0 0 0 0 0 0 0 0 0 0 0 0 0 0 0 0 0 0 0 0 0 0 0 0 0 0 0 0 0 0 0 0 0 0 0 0 0 0 0 0 0 0 0 0 0 0 0 0 0 0 0 0 0 0 0 496 497 497 497 498 499 499 500 500 500 500 500 499 499 500 499 499 499 499 499 499 499 499 499 499 499 499 500 500 500 501 501 501 502 502 502 503 503 503 503 504 504 505 506 506 507 508 509 509 510 510 510 510 511 511 511 511 511 511 510 510 510 509 509 509 508 507 507 506 506 506 506 506 507 507 508 508 508 509 509 509 509 509 509 509 509 509 509 508 508 507 506 505 504 504 503 503 502 501 500 499 498 497 497 496 496 496 495 494 493 491 490 490 489 488 487 486 485 484 483 483 483 482 481 480 479 478 478 477 477 477 477 477 0
0 0 0 0 0 0 0 0 0 0 0 0 0 0 0 0 5034 5034 5034 5013 5013 5013 5013 5013 4992 4992 4992 4992 4971 4971 4950 4950 4929 4909 4888 4888 4848 4829 4809 4770 4770 4713 4713 4732 4732 4732 4732 4732 4770 4770 4770 4790 4770 4790 4790 4790 4790 4809 4829 4829 4848 4848 4888 4888 4909 4909 4909 4929 4929 4929 4950 4971 4971 4971 4992 4992 4992 4992 5013 5013 5013 5013 5034 5034 5034 5034 5056 5056 5056 5056 5077 5077 5099 5121 5189 5189 5235 5258 5305 5329 5353 5402 5402 5427 5427 5402 5402 5402 5402 5353 5329 5329 5329 5305 5305 5305 5305 5305 5305 5305 5258 5305 5305 5305 5305 5305 5305 5258 5258 5258 5258 5258 5235 5235 5235 5235 5235 5258 5235 5235 5189 5189 5166 5166 5121 5099 5056 5034 5013 4992 4992 4992 4992 4992 5013 5034 5056 5077 5099 5121 5121 5099 5077 5013 4992 4929 4909 4888 4848 4790 0 0 0 0 0 0 0 0 0 0 0 0 0 0 0 0 0 0 0 0 0 0 0 0 0 0 1515 1515 1515 1517 1517 1519 1519 1521 1524 1526 1526 1526 1530 4992 4992 4971 4971 4971 4992 4992 4971 4971 4992 4992 4992 4992 4992 4992 4971 4971 4971 4950 4950 4950 4929 4929 4929 4929 4909 4909 4909 4909 4909 4909 4909 4909 4909 4909 4909 4909 4909 4909 4909 4909 4909 4909 4909 4909 4909 4909 4909 4909 4909 4929 4929 4929 4950 4971 4992 4992 5013 5013 5013 5013 4992 4992 4971 4971 4929 4929 4929 4929 4929 4929 4929 4929 4929 4929 4950 4971 4971 4992 4992 4992 4992 4992 4992 4971 4971 4950 4929 4929 4929 4929 4929 4929 4909 4909 4929 4929 4929 4909 4909 4909 4909 4909 4909 4909 4909 4909 4909 4909 4888 4888 4888 4868 4848 4829 4829 4809 4809 4790 4809 4809 4809 4809 4829 4829 4829 4848 4868 4888 4888 4888 4888 4888 4909 4909 4909 4909 4909 4909 4909 4909 4888 4888 4888 4888 4868 4868 4868 4868 4848 4848 4848 4848 4848 4848 4848 4848 4829 4829 4809 4809 4790 4770 4732 4713 4713 4676 4658 4639 4639 4603 4603 4603 4585 4603 4603 4603 4603 4603 4639 4639 4658 4658 4676 4713 4732 4770 4790 4809 4809 4829 4829 4829 4829 4848 4829 4829 4829 4809 4809 4790 4790 4770 4770 4770 4732 4732 4732 4732 4732 4732 4732 4713 4713 4713 4676 4658 4639 4603 4585 4550 4533 0 0 0 0 0 0 0 0 0 0 0 0 0 0 0 0 0 0 0 0 0 0 0 0 0 0 0 0 0 0 0 0 0 0 0 0 0 0 0 0 0 0 0 0 0 0 0 0 0 0 0 0 0 0 0 0 0 0 0 0 0 0 0 0 0 0 0 0 0 0 0 0 0 0 496 496 496 496 496 496 497 497 497 497 497 497 497 497 497 497 497 497 497 497 497 497 497 497 497 497 497 497 498 498 498 499 499 500 500 501 501 501 502 503 503 503 503 504 504 505 506 507 508 508 509 509 510 510 510 510 510 510 510 510 510 510 509 509 509 508 507 506 506 505 505 504 504 505 505 505 506 506 507 507 508 508 508 508 508 508 508 508 507 507 506 505 504 504 504 503 503 502 501 500 499 498 497 497 496 496 496 495 494 493 492 491 490 490 489 488 487 486 485 484 484 483 483 482 481 481 479 479 478 478 477 477 477 477 477
0 0 0 0 0 0 0 0 0 0 0 0 0 0 0 5099 5077 5077 5077 5056 5056 5056 5034 5034 5034 5013 4992 4992 4992 4971 4971 4971 4950 4929 4909 4909 4888 4868 4848 4829 4809 4790 4790 4790 4790 4790 4790 4790 4809 4809 4809 4829 4809 4829 4829 4829 4829 4829 4848 4848 4868 4868 4888 4888 4888 4909 4909 4909 4929 4929 4929 4950 4971 4971 4971 4992 4992 5013 5013 5013 5034 5034 5034 5034 5034 5056 5056 5056 5056 5077 5077 5099 5121 5166 5189 5235 5258 5305 5329 5353 5402 5427 5427 5477 5477 5427 5427 5427 5427 5427 5402 5402 5402 5329 5329 5329 5329 5329 5329 5353 5353 5353 5353 5353 5353 5353 5353 5329 5329 5329 5329 5305 5305 5305 5258 5258 5258 5258 5258 5235 5235 5235 5189 5166 5166 5121 5099 5077 5056 5034 5034 5034 5034 5056 5077 5099 5099 5166 5189 5189 5189 5166 5099 5056 4992 4929 4909 4888 4848 4790 0 0 0 0 0 0 0 0 0 0 0 0 0 0 0 0 0 0 0 0 0 0 0 0 0 0 1515 1515 1517 1519 1519 1519 1521 1523 1524 1526 1530 1530 1530 0 5013 5013 5013 5013 5013 5013 5013 5013 5013 5013 5034 5013 5013 5013 5013 4992 4992 4992 4971 4971 4971 4950 4950 4929 4929 4929 4929 4929 4929 4929 4929 4929 4929 4929 4929 4929 4929 4929 4929 4929 4929 4929 4929 4929 4929 4929 4929 4929 4929 4950 4950 4971 4992 4992 5034 5056 5056 5077 5077 5077 5034 5013 5013 4992 4971 4971 4950 4950 4950 4950 4950 4929 4950 4950 4971 4992 4992 4992 5013 5013 5013 5013 4992 4992 4971 4971 4971 4950 4950 4950 4950 4929 4929 4929 4929 4929 4929 4929 4929 4929 4929 4929 4929 4929 4929 4929 4909 4909 4909 4909 4888 4888 4868 4848 4829 4829 4829 4829 4829 4829 4848 4848 4868 4868 4888 4888 4888 4909 4909 4909 4909 4929 4929 4929 4929 4929 4929 4929 4909 4909 4909 4909 4909 4909 4909 4888 4888 4888 4888 4888 4888 4888 4888 4888 4888 4888 4888 4888 4868 4848 4829 4829 4809 4790 4770 4732 4732 4713 4676 4676 4676 4676 4658 4658 4658 4658 4658 4676 4676 4713 4713 4770 4770 4790 4829 4829 4848 4868 4868 4868 4868 4888 4868 4868 4848 4848 4848 4848 4829 4809 4809 4790 4790 4790 4790 4790 4790 4770 4770 4770 4770 4770 4770 4732 4713 4713 4676 0 0 0 0 0 0 0 0 0 0 0 0 0 0 0 0 0 0 0 0 0 0 0 0 0 0 0 0 0 0 0 0 0 0 0 0 0 0 0 0 0 0 0 0 0 0 0 0 0 0 0 0 0 0 0 0 0 0 0 0 0 0 0 0 0 0 0 0 0 0 0 0 0 0 0 0 496 496 496 496 496 496 496 496 496 496 496 496 496 496 496 496 496 496 496 496 496 496 496 496 496 496 496 496 496 497 497 497 497 497 497 498 499 499 499 500 500 501 502 502 503 503 503 504 504 505 506 507 508 509 509 509 510 510 510 510 510 510 510 509 509 509 508 507 506 505 505 504 504 504 504 504 504 504 504 504 505 505 506 506 506 506 506 506 506 506 506 505 505 504 504 503 503 503 502 501 500 499 498 497 497 496 496 496 495 495 493 492 491 490 490 489 489 488 487 486 485 484 484 483 483 482 482 481 480 479 478 478 477 477 477 477 477
0 0 0 0 0 0 0 0 0 0 0 0 0 0 0 5166 5121 5121 5121 5121 5099 5099 5077 5077 5056 5034 5034 5013 4992 4992 4992 4971 4971 4950 4929 4929 4909 4909 4888 4888 4848 4848 4848 4848 4829 4829 4829 4848 4848 4868 4868 4868 4868 4868 4868 4868 4868 4868 4868 4868 4888 4888 4888 4888 4888 4909 4909 4909 4909 4929 4929 4929 4950 4950 4971 4992 4992 4992 5013 5013 5013 5034 5034 5034 5056 5034 5034 5056 5056 5077 5077 5099 5121 5121 5189 5235 5258 5305 5329 5329 5353 5353 5402 5402 5427 5427 5427 5477 5477 5477 5477 5427 5402 5402 5402 5427 5427 5402 5427 5427 5402 5427 5477 5427 5427 5427 5427 5402 5402 5402 5353 5353 5353 5329 5329 5329 5329 5329 5305 5305 5258 5258 5235 5189 5189 5166 5099 5099 5077 5077 5077 5077 5099 5099 5121 5166 5189 5235 5235 5235 5235 5189 5166 5056 4992 4950 4909 4888 4829 4770 4676 0 0 0 0 0 0 0 0 0 0 0 0 0 0 0 0 0 0 0 0 0 0 0 0 0 1517 1517 1519 1521 1519 1521 1521 1523 1524 1526 1530 1530 1532 0 5099 5077 5077 5077 5077 5077 5056 5077 5056 5077 5077 5077 5077 5077 5056 5056 5034 5013 5013 4992 4992 4971 4971 4971 4950 4950 4929 4929 4929 4929 4929 4929 4929 4950 4950 4950 4950 4950 4950 4971 4971 4971 4971 4971 4971 4971 4971 4971 4971 4971 4992 4992 5013 5034 5077 5099 5121 5121 5121 5121 5099 5077 5034 5013 4992 4992 4992 4971 4971 4971 4971 4971 4971 4971 4992 4992 4992 5013 5013 5034 5013 5013 5013 4992 4992 4992 4971 4971 4971 4971 4971 4971 4950 4950 4950 4950 4950 4929 4929 4929 4929 4929 4929 4929 4929 4929 4929 4909 4909 4909 4888 4888 4888 4868 4848 4848 4848 4848 4848 4868 4868 4888 4888 4888 4909 4909 4909 4929 4929 4929 4929 4929 4950 4950 4950 4950 4950 4950 4929 4929 4929 4929 4929 4929 4929 4929 4929 4929 4929 4929 4929 4929 4909 4929 4909 4909 4909 4909 4909 4888 4888 4868 4868 4848 4829 4809 4809 4790 4770 4770 4732 4732 4732 4732 4732 4732 4732 4770 4790 4790 4809 4829 4848 4848 4888 4888 4888 4909 4909 4909 4909 4888 4888 4888 4888 4888 4868 4868 4848 4848 4829 4829 4809 4809 4809 4809 4809 4809 4809 4809 4809 4790 4790 4790 4790 4770 0 0 0 0 0 0 0 0 0 0 0 0 0 0 0 0 0 0 0 0 0 0 0 0 0 0 0 0 0 0 0 0 0 0 0 0 0 0 0 0 0 0 0 0 0 0 0 0 0 0 0 0 0 0 0 0 0 0 0 0 0 0 0 0 0 0 0 0 0 0 0 0 0 0 0 0 0 496 496 496 496 496 495 495 495 495 495 495 495 495 495 495 495 495 495 495 495 495 495 495 495 496 496 496 496 496 496 496 496 496 496 496 497 497 497 497 498 499 499 500 501 501 502 503 503 504 504 505 506 507 508 508 509 509 509 510 510 510 510 509 509 509 508 508 507 506 505 504 504 504 503 503 503 503 503 503 503 504 504 504 504 504 504 504 504 504 504 504 504 504 503 503 503 503 502 501 500 499 499 498 497 496 496 496 496 495 494 493 491 491 490 490 489 488 488 487 486 485 484 484 483 483 482 482 481 480 479 479 478 478 477 477 477 477
0 0 0 0 0 0 0 0 0 0 0 0 0 0 0 0 5235 5189 5189 5166 5121 5121 5099 5099 5077 5077 5056 5034 5013 5013 4992 4992 4992 4992 4971 4971 4950 4950 4929 4909 4909 4888 4888 4888 4888 4888 4888 4888 4888 4888 4888 4888 4888 4888 4888 4888 4888 4888 4888 4888 4888 4888 4888 4888 4909 4909 4909 4909 4909 4929 4929 4929 4950 4971 4971 4992 4992 4992 5013 5013 5034 5034 5034 5034 5034 5034 5034 5056 5056 5056 5056 5077 5099 5121 5166 5189 5189 5235 5258 5305 5329 5305 5329 5353 5353 5402 5402 5402 5427 5427 5427 5427 5427 5427 5427 5427 5477 5477 5477 5477 5477 5477 5477 5502 5502 5477 5477 5427 5427 5427 5427 5402 5402 5402 5353 5353 5353 5353 5329 5329 5305 5305 5258 5235 5235 5189 5166 5121 5121 5121 5121 5121 5166 5166 5189 5235 5258 5305 5305 5305 5258 5258 5189 5099 5013 4971 4929 4888 4848 4770 4658 0 0 0 0 0 0 0 0 0 0 0 0 0 0 0 0 0 0 0 0 0 0 0 0 0 1519 1519 1519 1519 1521 1521 1523 1524 1526 1530 1530 1530 1532 5189 5166 5166 5121 5121 5121 5099 5099 5121 5121 5121 5121 5121 5121 5121 5121 5099 5099 5077 5056 5034 5013 4992 4992 4992 4971 4971 4971 4971 4971 4971 4971 4971 4971 4971 4971 4971 4971 4992 4992 4992 4992 4992 4992 4992 4992 4992 4992 4992 4992 4992 5013 5034 5056 5077 5121 5166 5189 5189 5189 5189 5166 5121 5099 5077 5056 5034 5013 5013 4992 4992 4992 4992 4992 4992 5013 5034 5034 5034 5034 5034 5034 5034 5034 5013 4992 4992 4992 4992 4992 4992 4971 4971 4971 4971 4971 4971 4971 4971 4950 4950 4950 4950 4929 4929 4929 4929 4929 4909 4909 4909 4888 4888 4888 4868 4868 4868 4868 4868 4888 4888 4888 4909 4909 4909 4929 4929 4929 4950 4950 4971 4971 4971 4971 4971 4971 4971 4971 4971 4971 4971 4971 4971 4971 4971 4971 4950 4950 4950 4950 4971 4971 4971 4971 4950 4950 4950 4950 4929 4929 4909 4909 4909 4888 4888 4888 4868 4848 4848 4829 4809 4809 4809 4809 4809 4809 4809 4829 4829 4848 4868 4888 4888 4888 4909 4909 4909 4929 4929 4929 4929 4929 4909 4909 4909 4909 4888 4888 4888 4888 4868 4868 4848 4829 4829 4829 4829 4829 4829 4809 4829 4829 4829 4829 4809 4790 0 0 0 0 0 0 0 0 0 0 0 0 0 0 0 0 0 0 0 0 0 0 0 0 0 0 0 0 0 0 0 0 0 0 0 0 0 0 0 0 0 0 0 0 0 0 0 0 0 0 0 0 0 0 0 0 0 0 0 0 0 0 0 0 0 0 0 0 0 0 0 0 0 0 0 0 0 497 496 496 496 496 496 495 495 494 494 493 493 493 493 493 492 492 492 493 493 493 493 493 494 494 494 494 495 495 495 495 495 495 495 496 496 496 496 496 496 496 497 497 498 499 500 501 502 503 503 503 504 504 505 506 507 508 508 509 509 509 509 509 509 509 508 508 507 506 505 504 504 503 503 503 503 503 503 503 503 503 503 503 503 503 503 503 503 503 503 503 503 503 503 503 503 503 502 501 500 499 499 498 497 497 496 496 496 495 495 493 492 491 490 490 489 489 488 487 486 485 484 484 483 483 483 482 482 481 481 480 479 478 478 478 477 477 477
0 0 0 0 0 0 0 0 0 0 0 0 0 0 0 0 5305 5258 5258 5235 5189 5189 5166 5121 5099 5077 5077 5056 5034 5013 5013 5013 5013 4992 4992 4992 4992 4992 4971 4971 4950 4929 4929 4929 4929 4929 4909 4929 4929 4929 4909 4909 4909 4909 4909 4909 4909 4909 4909 4909 4909 4909 4909 4909 4909 4909 4909 4909 4929 4929 4929 4950 4950 4971 4992 4992 5013 5034 5034 5056 5056 5056 5077 5056 5056 5056 5034 5056 5056 5056 5056 5077 5077 5099 5121 5121 5166 5189 5189 5235 5235 5235 5258 5258 5305 5305 5329 5329 5353 5353 5353 5353 5353 5402 5402 5402 5427 5427 5477 5477 5477 5502 5502 5502 5502 5502 5477 5502 5477 5477 5477 5477 5427 5427 5402 5402 5402 5402 5353 5329 5305 5305 5258 5258 5235 5235 5189 5189 5189 5235 5235 5235 5258 5258 5258 5305 5329 5353 5329 5353 5329 5305 5235 5121 5034 4971 4929 4909 4868 4790 4658 4398 0 0 0 0 0 0 0 0 0 0 0 0 0 0 0 0 0 0 0 0 0 0 0 0 1521 1523 1523 1521 1521 1523 1523 1524 1526 1530 1530 1530 1532 5235 5189 5189 5189 5189 5189 5166 5166 5166 5166 5166 5189 5189 5189 5189 5166 5166 5121 5121 5099 5077 5034 5013 5013 4992 4992 4971 4971 4971 4971 4971 4971 4971 4971 4992 4992 4992 5013 5013 5013 5034 5034 5034 5034 5034 5034 5034 5034 5034 5034 5056 5056 5077 5099 5166 5189 5189 5235 5235 5258 5258 5235 5189 5166 5121 5099 5099 5077 5056 5056 5056 5034 5034 5034 5056 5056 5056 5056 5056 5056 5056 5056 5056 5034 5034 5034 5013 4992 4992 4992 4992 4992 4992 4971 4971 4971 4971 4971 4971 4971 4971 4950 4950 4950 4950 4929 4929 4929 4929 4909 4909 4909 4888 4888 4888 4888 4888 4888 4888 4888 4909 4909 4929 4929 4929 4950 4971 4971 4971 4971 4971 4992 4992 4992 4992 4992 4992 4992 4992 4992 4992 4992 4992 4992 4992 4992 4992 4992 4992 4992 4992 4992 4992 4992 4992 4971 4971 4971 4971 4971 4950 4929 4929 4929 4909 4909 4909 4888 4888 4888 4868 4868 4848 4848 4848 4868 4868 4888 4888 4888 4909 4909 4929 4929 4929 4929 4950 4950 4950 4950 4950 4950 4950 4929 4929 4929 4909 4909 4909 4888 4888 4888 4868 4848 4848 4848 4848 4848 4829 4829 4848 4848 4829 4848 4829 0 0 0 0 0 0 0 0 0 0 0 0 0 0 0 0 0 0 0 0 0 0 0 0 0 0 0 0 0 0 0 0 0 0 0 0 0 0 0 0 0 0 0 0 0 0 0 0 0 0 0 0 0 0 0 0 0 0 0 0 0 0 0 0 0 0 0 0 0 0 0 0 502 501 500 499 498 497 497 496 496 496 495 495 494 494 493 492 491 491 491 491 490 490 0 490 490 490 491 491 491 491 492 493 493 493 493 493 493 493 493 494 494 494 495 495 496 496 496 496 496 497 498 499 499 501 502 502 503 503 504 504 505 506 507 507 508 508 509 509 509 508 508 508 507 506 505 504 504 503 503 503 503 503 503 502 502 502 502 502 502 502 503 503 503 503 503 503 503 503 503 503 502 502 502 501 500 499 499 498 497 497 497 496 496 495 495 494 493 491 490 490 489 489 489 488 487 486 485 484 484 483 483 483 483 482 482 481 480 479 478 478 478 478 477 477
0 0 0 0 0 0 0 0 0 0 0 0 0 0 0 5353 5353 5329 5305 5258 5235 5189 5166 5121 5099 5077 5077 5056 5034 5013 5034 5034 5034 5034 5034 5056 5034 5034 5034 5013 4992 4992 4992 4992 4992 4971 4971 4971 4971 4971 4971 4950 4950 4950 4929 4929 4929 4929 4929 4929 4929 4909 4909 4909 4909 4909 4909 4909 4929 4929 4929 4950 4971 4971 4992 4992 5013 5034 5056 5056 5056 5077 5077 5077 5056 5056 5056 5034 5034 5034 5034 5056 5056 5077 5099 5099 5099 5121 5121 5121 5121 5166 5166 5189 5189 5235 5235 5235 5258 5305 5305 5305 5305 5329 5329 5329 5329 5353 5353 5402 5427 5427 5477 5477 5477 5477 5477 5477 5477 5477 5477 5477 5477 5427 5427 5427 5427 5402 5402 5353 5329 5329 5305 5305 5258 5258 5235 5235 5235 5258 5305 5305 5305 5329 5353 5353 5353 5402 5402 5402 5353 5329 5305 5166 5056 4992 4950 4909 4888 4790 4533 0 0 0 0 0 0 0 0 0 0 0 0 0 0 0 0 0 0 0 0 0 0 0 0 0 1521 1521 1521 1521 1521 1523 1523 1524 1526 1530 1530 1530 1532 5305 5258 5235 5235 5235 5189 5189 5189 5189 5189 5235 5235 5235 5258 5235 5235 5235 5189 5189 5121 5121 5077 5056 5034 5034 4992 4992 4992 4992 4992 4992 4992 4992 4992 5013 5034 5034 5056 5077 5077 5077 5077 5077 5077 5077 5077 5099 5099 5099 5099 5099 5121 5166 5189 5189 5235 5258 5258 5305 5305 5258 5258 5235 5189 5166 5166 5121 5099 5099 5099 5077 5077 5077 5077 5099 5099 5099 5099 5077 5077 5077 5077 5056 5056 5056 5056 5034 5034 5013 5013 4992 4992 4992 4992 4992 4992 4971 4971 4971 4971 4971 4971 4971 4971 4950 4950 4929 4929 4929 4929 4909 4909 4909 4888 4888 4888 4909 4909 4909 4909 4929 4929 4950 4971 4971 4971 4992 4992 4992 4992 4992 4992 4992 4992 4992 5013 5013 5013 5013 5013 5013 5013 5013 5013 5013 5013 5013 5013 5034 5034 5034 5013 5013 5013 5013 5013 4992 4992 4992 4971 4971 4971 4971 4950 4929 4929 4929 4929 4909 4909 4888 4888 4888 4888 4909 4909 4909 4909 4909 4929 4950 4950 4971 4971 4971 4992 4992 4992 4992 4992 4992 4992 4971 4971 4971 4950 4950 4929 4929 4909 4909 4888 4888 4868 4868 4848 4848 4848 4848 4848 4848 0 0 4848 4848 0 0 0 0 0 0 0 0 0 0 0 0 0 0 0 0 0 0 0 0 0 0 0 0 0 0 0 0 0 0 0 0 0 0 0 0 0 0 0 0 0 0 0 0 0 0 0 0 0 0 0 0 0 0 0 0 0 0 0 0 0 0 0 0 0 0 0 0 0 0 503 503 502 501 500 499 498 497 497 496 496 496 495 495 493 493 492 491 491 490 490 490 490 489 489 489 489 489 490 490 490 490 491 491 491 491 491 491 491 491 491 492 492 493 493 494 494 495 495 496 496 496 497 497 498 499 500 501 502 503 503 504 504 504 505 506 507 507 508 508 508 507 507 507 506 505 504 504 504 503 503 503 502 502 502 501 501 501 501 501 501 501 501 501 502 502 502 502 502 502 501 501 501 501 500 500 499 498 497 497 497 496 496 496 496 495 494 493 492 491 490 490 489 489 488 487 486 485 485 484 484 483 483 483 483 482 482 481 481 479 478 478 478 478 478 477
0 0 0 0 0 0 0 0 0 0 0 0 0 0 5402 5329 5329 5258 5235 5189 5189 5166 5121 5099 5077 5056 5056 5034 5034 5013 5013 5034 5034 5056 5056 5077 5077 5056 5077 5077 5056 5056 5056 5034 5034 5034 5013 5034 5034 5013 4992 4992 4992 4971 4971 4971 4950 4950 4929 4929 4929 4929 4929 4929 4929 4909 4909 4909 4929 4929 4929 4950 4971 4992 4992 5013 5034 5056 5056 5056 5077 5077 5077 5077 5056 5056 5056 5056 5034 5034 5034 5034 5034 5056 5056 5056 5056 5077 5077 5099 5099 5077 5099 5099 5099 5121 5121 5121 5166 5189 5189 5189 5189 5189 5235 5235 5258 5258 5305 5305 5353 5353 5402 5427 5427 5427 5427 5427 5427 5427 5427 5477 5477 5477 5427 5427 5427 5427 5402 5402 5353 5353 5329 5305 5258 5258 5258 5305 5305 5329 5329 5353 5402 5427 5427 5477 5477 5477 5427 5427 5427 5353 5329 5189 5077 5013 4971 4909 4868 0 0 0 0 0 0 0 0 0 0 0 0 0 0 0 0 0 0 0 0 0 0 0 0 0 0 0 1523 1521 1523 1523 1521 1523 1523 1524 1526 1530 1530 1530 1532 5305 5305 5258 5258 5258 5258 5235 5235 5258 5258 5258 5258 5305 5305 5305 5305 5305 5258 5235 5235 5166 5121 5099 5077 5056 5034 5034 5013 5013 5013 5013 5013 5013 5034 5034 5056 5077 5099 5121 5121 5121 5121 5166 5121 5166 5166 5166 5166 5189 5166 5166 5189 5235 5235 5258 5258 5258 5305 5305 5329 5305 5305 5258 5235 5235 5189 5166 5166 5166 5166 5121 5121 5121 5166 5166 5166 5166 5121 5121 5121 5121 5099 5099 5077 5077 5077 5056 5056 5034 5034 5013 5013 5013 4992 4992 4992 4992 4992 4992 4992 4992 4971 4971 4971 4971 4971 4950 4950 4950 4929 4929 4929 4909 4909 4909 4929 4929 4929 4929 4950 4971 4971 4992 4992 4992 5013 5013 5034 5034 5034 5034 5034 5034 5034 5034 5034 5034 5034 5056 5056 5056 5056 5056 5056 5077 5056 5056 5056 5077 5077 5077 5077 5056 5056 5056 5034 5034 5013 5013 4992 4992 4992 4992 4971 4971 4971 4950 4929 4929 4929 4929 4909 4929 4929 4929 4950 4950 4971 4971 4971 4992 4992 4992 4992 5013 5013 5013 5034 5034 5034 5034 5034 5013 4992 4992 4992 4971 4971 4950 4929 4909 4909 4888 4888 4868 4848 4848 4848 4848 4848 4829 4829 4829 0 0 0 0 0 0 0 0 0 0 0 0 0 0 0 0 0 0 0 0 0 0 0 0 0 0 0 0 0 0 0 0 0 0 0 0 0 0 0 0 0 0 0 0 0 0 0 0 0 0 0 0 0 0 0 0 0 0 0 0 0 0 0 0 0 0 0 0 0 0 0 503 503 503 502 501 500 498 498 497 496 496 496 495 495 494 493 493 491 491 490 490 490 489 489 488 488 488 488 488 489 489 489 490 490 490 490 490 490 490 490 490 490 490 491 491 491 492 493 493 494 495 495 496 496 497 497 498 499 500 501 502 503 503 503 504 504 505 506 506 507 507 507 506 506 506 505 504 504 504 503 503 503 502 502 501 501 500 500 500 500 500 500 500 500 500 500 500 500 500 500 500 500 500 499 499 499 498 498 497 497 497 496 496 496 496 495 495 494 493 491 490 490 489 489 488 487 487 486 485 484 484 484 483 483 483 483 482 482 481 481 480 479 479 478 478 0 0
0 0 0 0 0 0 0 0 0 0 0 0 0 5427 5353 5329 5305 5235 5189 5189 5121 5099 5077 5056 5056 5034 5013 5013 5013 4992 5013 5034 5034 5056 5077 5099 5099 5099 5121 5121 5099 5099 5099 5099 5099 5077 5077 5077 5077 5056 5034 5013 5013 4992 4992 4971 4971 4971 4971 4950 4950 4950 4929 4929 4929 4909 4929 4929 4929 4929 4950 4971 4971 4992 5013 5013 5034 5056 5077 5077 5077 5099 5099 5077 5056 5056 5034 5034 5034 5013 4992 4992 5013 5034 5034 5056 5056 5056 5056 5056 5056 5056 5056 5077 5077 5077 5077 5099 5099 5099 5099 5121 5099 5121 5121 5121 5166 5189 5189 5235 5235 5305 5305 5329 5353 5353 5353 5402 5402 5427 5427 5427 5427 5427 5427 5427 5427 5427 5402 5402 5353 5329 5329 5305 5305 5258 5305 5305 5329 5353 5402 5402 5427 5477 5477 5502 5502 5502 5477 5477 5477 5427 5329 5258 5121 5034 4992 4929 0 0 0 0 0 0 0 0 0 0 0 0 0 0 0 0 0 0 0 0 0 0 0 0 0 0 0 1521 1521 1521 1521 1521 1521 1521 1521 1523 1526 1526 1526 1526 1532 5329 5329 5305 5305 5305 5258 5258 5258 5258 5305 5305 5305 5329 5329 5329 5329 5329 5305 5305 5258 5235 5189 5166 5121 5099 5077 5056 5056 5034 5034 5034 5034 5034 5056 5056 5099 5099 5121 5166 5189 5189 5189 5189 5235 5235 5235 5235 5258 5258 5235 5258 5258 5305 5305 5305 5329 5305 5329 5329 5353 5329 5329 5305 5258 5235 5235 5189 5235 5235 5235 5189 5235 5235 5258 5258 5235 5235 5235 5189 5189 5166 5166 5166 5121 5121 5121 5099 5077 5077 5056 5056 5034 5034 5034 5013 5013 5013 5013 4992 4992 4992 4992 4992 4992 4992 4971 4971 4971 4971 4950 4950 4929 4929 4929 4929 4950 4950 4971 4971 4992 4992 5013 5034 5034 5056 5056 5056 5077 5077 5056 5056 5077 5056 5056 5056 5056 5077 5077 5077 5077 5077 5099 5099 5099 5099 5099 5099 5099 5099 5099 5099 5099 5099 5077 5077 5056 5056 5034 5034 5013 5013 4992 4992 4992 4971 4971 4971 4971 4971 4950 4950 4950 4950 4971 4971 4992 4992 4992 5013 5034 5034 5056 5056 5056 5056 5077 5077 5099 5099 5099 5099 5099 5077 5056 5034 5013 4992 4971 4971 4950 4929 4909 4909 4888 4868 4868 4848 4848 4829 0 0 0 0 0 0 0 0 0 0 0 0 0 0 0 0 0 0 0 0 0 0 0 0 0 0 0 0 0 0 0 0 0 0 0 0 0 0 0 0 0 0 0 0 0 0 0 0 0 0 0 0 0 0 0 0 0 0 0 0 0 0 0 0 0 0 0 0 0 0 0 0 0 0 504 503 503 503 501 501 499 499 497 497 496 496 496 495 495 494 493 492 491 490 490 490 489 489 488 487 487 486 486 486 487 487 488 489 489 489 489 489 489 489 489 489 490 490 490 490 490 491 491 492 493 494 494 495 496 496 496 497 498 499 500 501 502 503 503 503 504 504 504 505 506 506 506 505 505 505 504 504 504 503 503 503 502 501 501 501 500 499 499 499 499 499 499 499 499 499 499 499 499 499 499 499 499 498 498 498 498 497 497 497 497 496 496 496 496 496 495 494 493 491 491 490 490 489 488 488 487 486 485 485 484 484 483 483 483 483 483 482 482 482 481 480 479 479 478 478 0 0
0 0 0 0 0 0 0 0 0 0 0 0 0 0 5353 5305 5305 5235 5189 5121 5099 5077 5056 5034 5013 5013 4992 4992 4992 4992 4992 5013 5013 5034 5056 5077 5099 5121 5121 5121 5166 5166 5166 5121 5121 5121 5121 5121 5099 5099 5077 5056 5034 5013 4992 4992 4992 4971 4971 4971 4971 4950 4929 4929 4929 4929 4929 4929 4929 4950 4971 4971 4992 5013 5034 5034 5056 5077 5077 5099 5099 5099 5099 5077 5056 5034 5034 5013 5013 4992 4992 4992 4992 4992 5013 5013 5013 5034 5034 5034 5034 5034 5034 5034 5056 5056 5056 5077 5077 5077 5077 5077 5077 5077 5099 5077 5099 5099 5099 5121 5166 5166 5189 5258 5258 5305 5305 5329 5329 5353 5402 5402 5402 5402 5402 5402 5402 5402 5353 5353 5329 5305 5305 5258 5258 5258 5258 5305 5329 5353 5402 5402 5427 5477 5502 5502 5502 5528 5502 5502 5502 5427 5402 5305 5189 5099 5013 0 0 0 0 0 0 0 0 0 0 0 0 0 0 0 0 0 0 0 0 0 0 0 0 0 0 0 0 1521 1521 1521 1519 1521 1519 1519 1521 1523 1524 1526 1526 1526 1532 5329 5329 5329 5329 5305 5305 5305 5258 5305 5305 5329 5329 5329 5353 5353 5353 5353 5353 5329 5305 5258 5235 5189 5166 5166 5099 5099 5056 5034 5034 5034 5034 5056 5077 5077 5121 5166 5189 5235 5235 5235 5258 5258 5305 5305 5329 5329 5329 5329 5329 5329 5353 5353 5353 5353 5353 5329 5353 5353 5353 5353 5329 5329 5305 5258 5258 5258 5305 5305 5305 5305 5329 5329 5329 5329 5329 5305 5305 5305 5258 5258 5258 5235 5235 5189 5189 5166 5121 5121 5099 5099 5077 5077 5056 5056 5056 5056 5034 5034 5034 5034 5013 5013 5013 4992 4992 4992 4992 4992 4971 4971 4971 4971 4971 4971 4992 4992 4992 5013 5034 5056 5056 5077 5099 5099 5099 5099 5121 5099 5099 5099 5099 5077 5077 5077 5077 5077 5099 5099 5099 5121 5121 5121 5121 5121 5121 5121 5121 5121 5121 5121 5121 5099 5099 5077 5077 5056 5056 5056 5034 5013 5013 4992 4992 4992 4992 4971 4971 4971 4971 4971 4971 4992 4992 5034 5056 5056 5056 5056 5077 5099 5121 5121 5121 5121 5121 5166 5166 5189 5189 5166 5121 5121 5099 5077 5056 5013 4992 4971 4950 4929 4929 4909 4888 4888 4868 4848 4829 4829 4829 4829 0 0 0 0 0 0 0 0 0 0 0 0 0 0 0 0 0 0 0 0 0 0 0 0 0 0 0 0 0 0 0 0 0 0 0 0 0 0 0 0 0 0 0 0 0 0 0 0 0 0 0 0 0 0 0 0 0 0 0 0 0 0 0 0 0 0 0 0 0 0 0 504 504 503 503 502 501 500 499 498 497 497 496 496 496 495 494 493 492 491 491 490 490 489 489 488 487 486 485 484 484 484 485 485 486 487 487 488 488 489 489 489 489 489 489 489 489 489 490 490 490 491 491 492 493 494 495 496 496 496 497 497 499 499 501 501 502 503 503 503 504 504 505 505 505 505 504 504 504 504 503 503 503 502 501 501 500 500 499 499 498 498 498 497 497 497 497 497 497 497 497 498 497 497 497 497 497 497 497 497 497 497 496 496 496 496 496 495 494 493 492 491 490 490 489 489 488 487 486 486 485 484 484 484 483 483 483 483 483 482 482 482 481 480 479 479 478 478 478 0
0 0 0 0 0 0 0 0 0 0 0 0 0 0 5353 5305 5258 5189 5121 5099 5077 5056 5034 5013 5013 4992 4992 4992 4992 4992 4992 4992 4992 5013 5034 5056 5077 5099 5099 5121 5121 5121 5121 5121 5121 5099 5099 5099 5099 5077 5077 5056 5034 5013 5013 4992 4992 4971 4971 4971 4971 4950 4950 4950 4929 4929 4929 4950 4950 4971 4971 4992 5013 5034 5077 5077 5077 5099 5099 5121 5121 5121 5099 5077 5056 5034 5013 4992 4992 4992 4971 4971 4992 4992 4992 4992 4992 5013 5013 5013 5013 5013 5034 5034 5034 5034 5034 5056 5056 5056 5077 5056 5056 5077 5077 5077 5056 5077 5099 5099 5121 5121 5166 5166 5235 5235 5258 5258 5305 5329 5329 5329 5329 5329 5329 5329 5329 5329 5329 5305 5258 5258 5258 5235 5235 5189 5235 5258 5258 5329 5329 5402 5402 5477 5477 5502 5502 5502 5528 5502 5502 5477 5427 5353 5258 5189 0 0 0 0 0 0 0 0 3105 3089 0 0 0 0 0 0 0 0 0 0 0 0 0 0 0 0 0 0 0 1519 1519 1519 1519 1515 1517 1517 1519 1519 1523 1523 1523 1524 1526 5353 5329 5329 5329 5329 5305 5305 5305 5305 5329 5329 5329 5353 5353 5353 5353 5353 5353 5353 5329 5305 5258 5235 5189 5189 5121 5099 5077 5077 5056 5056 5077 5077 5077 5099 5121 5166 5235 5258 5258 5305 5305 5329 5353 5402 5402 5402 5427 5477 5427 5427 5477 5427 5427 5427 5427 5402 5402 5402 5402 5353 5353 5329 5329 5305 5329 5329 5353 5402 5402 5427 5427 5477 5427 5427 5427 5427 5402 5402 5353 5353 5353 5329 5305 5305 5258 5258 5235 5189 5189 5166 5166 5121 5121 5099 5099 5077 5077 5077 5077 5056 5056 5056 5056 5034 5034 5013 5013 4992 4992 4992 4992 4992 4992 5013 5034 5034 5056 5077 5099 5121 5166 5166 5166 5189 5189 5166 5189 5166 5166 5166 5121 5121 5121 5121 5121 5121 5121 5121 5166 5121 5166 5166 5166 5166 5166 5166 5166 5166 5121 5121 5121 5121 5099 5077 5077 5056 5056 5034 5034 5013 5013 5013 4992 4992 4992 4992 4992 4992 4992 4992 4992 5013 5034 5077 5099 5121 5121 5121 5166 5189 5235 5235 5189 5189 5235 5235 5258 5258 5258 5235 5189 5166 5166 5121 5077 5056 5013 4992 4971 4950 4929 4909 4888 4888 4868 4848 4829 4829 4809 4809 0 0 0 0 0 0 0 0 0 0 0 0 0 0 0 0 0 0 0 0 0 0 0 0 0 0 0 0 0 0 0 0 0 0 0 0 0 0 0 0 0 0 0 0 0 0 0 0 0 0 0 0 0 0 0 0 0 0 0 0 0 0 0 0 0 0 0 0 0 0 505 504 503 503 503 502 501 499 499 497 497 497 496 496 495 495 494 493 492 491 491 490 490 489 488 487 486 485 484 484 484 483 484 484 484 484 485 485 486 487 487 487 487 488 488 488 489 489 489 489 490 490 490 491 491 493 494 495 495 496 496 497 497 498 499 500 501 502 503 503 503 504 504 504 504 504 504 504 504 503 503 503 502 501 501 500 499 499 499 498 497 497 497 497 497 497 497 497 497 497 497 497 497 497 497 497 497 497 497 496 496 496 496 496 496 495 495 494 493 492 491 490 490 490 489 489 488 487 486 485 485 484 484 483 483 483 483 483 482 482 482 481 481 480 479 479 478 478 478 478
0 0 0 0 0 0 0 0 0 0 0 0 0 0 0 5305 5235 5166 5099 5077 5056 5034 5013 4992 4992 4992 4971 4971 4971 4971 4971 4971 4971 4992 4992 5013 5034 5034 5056 5077 5077 5077 5077 5077 5077 5077 5056 5056 5056 5034 5013 5013 4992 4992 4992 4971 4971 4971 4950 4950 4950 4950 4950 4929 4929 4929 4929 4950 4950 4971 4971 4992 5013 5034 5077 5077 5099 5121 5121 5166 5166 5166 5121 5099 5056 5034 4992 4992 4992 4971 4971 4971 4971 4992 4992 4992 4992 5013 5013 5013 5034 5034 5034 5034 5034 5034 5056 5056 5056 5056 5056 5056 5056 5056 5056 5056 5034 5034 5056 5056 5077 5077 5077 5099 5121 5166 5189 5235 5235 5258 5258 5305 5258 5258 5258 5258 5258 5235 5235 5235 5189 5189 5189 5166 5166 5166 5189 5189 5235 5258 5305 5329 5353 5402 5427 5427 5477 5477 5502 5502 5477 5477 5427 5402 0 0 0 0 0 0 0 0 0 3130 3121 3105 3097 3097 0 0 0 0 0 0 0 0 0 0 0 0 0 0 0 0 0 1517 1515 1515 1515 1515 1515 1515 1515 1517 1517 1521 1521 1524 1524 5329 5329 5329 5329 5329 5329 5305 5305 5329 5329 5329 5329 5353 5353 5353 5353 5353 5329 5329 5329 5305 5258 5235 5235 5189 5166 5121 5099 5077 5077 5077 5077 5077 5099 5121 5166 5189 5258 5305 5305 5329 5353 5402 5427 5427 5477 5502 5528 5554 5528 5554 5554 5528 5502 5528 5502 5477 5477 5477 5477 5427 5402 5402 5353 5353 5402 5427 5477 5502 5502 5502 5528 5528 5528 5528 5528 5502 5502 5477 5477 5477 5427 5427 5402 5353 5353 5329 5329 5305 5258 5258 5235 5235 5189 5189 5166 5166 5166 5166 5121 5121 5121 5099 5099 5077 5077 5056 5056 5056 5056 5056 5056 5056 5056 5077 5099 5121 5121 5166 5189 5235 5235 5235 5235 5258 5235 5235 5235 5235 5189 5189 5166 5166 5166 5166 5166 5166 5166 5166 5166 5189 5189 5166 5166 5189 5189 5166 5166 5166 5166 5121 5121 5121 5099 5077 5056 5056 5034 5034 5013 5013 5013 4992 4992 4992 4992 4992 4992 4992 5013 5013 5034 5034 5077 5121 5166 5189 5235 5235 5258 5305 5305 5305 5305 5258 5305 5305 5305 5329 5329 5305 5258 5235 5189 5166 5121 5077 5034 4992 4971 4950 4929 4909 4888 4888 4868 4848 4829 4829 0 0 0 0 0 0 0 0 0 0 0 0 0 0 0 0 0 0 0 0 0 0 0 0 0 0 0 0 0 0 0 0 0 0 0 0 0 0 0 0 0 0 0 0 0 0 0 0 0 0 0 0 0 0 0 0 0 0 0 0 0 0 0 0 0 0 0 0 0 0 510 509 505 504 503 503 502 0 500 499 498 497 497 496 496 496 495 494 493 493 491 491 490 490 489 489 488 487 485 484 483 483 483 483 483 483 483 483 483 484 484 484 485 485 486 486 487 487 487 488 488 489 489 489 490 490 491 491 493 493 494 495 496 496 496 497 498 499 500 501 502 503 503 503 503 504 504 504 504 503 503 503 503 502 501 501 500 499 499 498 498 497 497 497 496 496 496 496 496 496 496 496 496 496 496 496 496 496 496 496 496 496 496 496 496 496 495 495 494 493 493 491 491 490 490 489 489 488 488 487 486 485 484 484 484 483 483 483 483 483 482 482 482 481 481 480 479 479 478 478 478 478
0 0 0 0 0 0 0 0 0 0 0 0 0 0 0 0 5235 5121 5077 5034 5013 4992 4992 4971 4971 4950 4950 4950 4950 4950 4950 4971 4971 4971 4992 4992 5013 5034 5034 5056 5077 5077 5077 5077 5077 5056 5056 5034 5034 5013 4992 4992 4971 4971 4950 4950 4929 4929 4929 4929 4929 4929 4929 4929 4929 4929 4929 4929 4950 4971 4971 4992 4992 5013 5034 5056 5056 5077 5077 5077 5099 5099 5077 5034 5013 4992 4992 4992 4971 4971 4971 4971 4971 4992 4992 4992 5013 5013 5034 5034 5056 5056 5056 5056 5056 5056 5056 5056 5056 5056 5056 5056 5056 5056 5034 5034 5034 5034 5034 5034 5056 5034 5056 5056 5099 5099 5121 5166 5189 5235 5235 5258 5258 5258 5258 5258 5258 5235 5189 5189 5189 5166 5166 5121 5121 5121 5166 5166 5189 5235 5258 5258 5329 5329 5402 5402 5427 5477 5477 5477 5477 5427 5402 5402 0 0 0 0 0 0 0 0 0 3163 3155 3130 3130 3130 3105 3097 0 0 0 0 0 0 0 0 0 0 0 0 0 0 0 1519 1517 1517 1515 1515 1515 1513 1515 1515 1517 1519 1521 1523 1524 5329 5329 5329 5329 5329 5329 5329 5305 5305 5329 5329 5329 5329 5329 5329 5329 5353 5329 5329 5329 5305 5258 5258 5235 5235 5189 5166 5121 5121 5099 5099 5099 5121 5121 5166 5189 5235 5305 5329 5353 5402 5402 5427 5477 5502 5528 5554 5580 5607 5607 5607 5607 5580 5580 5580 5554 5528 5502 5528 5502 5502 5502 5477 5477 5477 5502 5528 5528 5580 5580 5580 5607 5607 5607 5607 5580 5580 5554 5554 5528 5528 5528 5502 5502 5477 5477 5427 5402 5353 5353 5329 5305 5305 5258 5258 5258 5258 5258 5235 5235 5235 5189 5189 5189 5189 5166 5166 5166 5121 5121 5121 5121 5166 5166 5166 5189 5235 5235 5258 5258 5305 5329 5329 5305 5329 5305 5305 5305 5258 5258 5235 5235 5189 5189 5189 5189 5189 5189 5189 5189 5189 5189 5189 5189 5189 5189 5166 5166 5166 5121 5121 5121 5099 5077 5056 5056 5034 5034 5013 5013 5013 5013 5013 5013 5013 5013 5013 5034 5034 5034 5056 5056 5077 5121 5189 5235 5258 5305 5305 5329 5353 5353 5353 5353 5329 5353 5353 5353 5353 5353 5329 5329 5305 5235 5189 5121 5077 5034 4992 4971 4950 4929 4909 4888 4888 4868 4848 0 0 0 0 0 0 0 0 0 0 0 0 0 0 0 0 0 0 0 0 0 0 0 0 0 0 0 0 0 0 0 0 0 0 0 0 0 0 0 0 0 0 0 0 0 0 0 0 0 0 0 0 0 0 0 0 0 0 0 0 0 0 0 0 0 0 0 0 0 0 0 0 0 509 504 503 503 503 502 501 500 499 497 497 496 496 496 495 495 494 493 492 491 490 490 490 489 489 487 486 484 484 483 483 482 482 482 482 482 482 482 483 483 483 483 484 484 484 485 485 486 486 487 488 489 489 489 490 490 491 491 492 493 494 495 496 496 496 497 498 499 501 502 502 503 503 503 503 503 503 503 503 503 503 502 502 501 500 499 499 498 497 497 497 496 496 496 496 496 496 496 496 496 496 496 496 496 496 496 496 496 496 496 496 496 495 495 495 495 494 493 493 491 491 490 490 490 489 489 488 487 487 486 485 484 484 483 483 483 483 483 483 482 482 481 481 480 480 479 479 478 478 478 478
0 0 0 0 0 0 0 0 0 0 0 0 0 0 0 0 0 0 5034 5013 4992 4992 4971 4971 4950 4950 4929 4929 4929 4929 4929 4929 4950 4971 4971 4992 4992 5013 5034 5056 5056 5077 5077 5077 5056 5034 5034 5013 4992 4992 4992 4971 4971 4950 4950 4929 4929 4929 4929 4929 4929 4929 4909 4909 4909 4909 4909 4909 4929 4929 4950 4971 4971 4992 4992 4992 5013 5013 5013 5034 5034 5034 5013 4992 4992 4971 4971 4971 4971 4950 4950 4950 4971 4971 4992 4992 5013 5034 5034 5056 5077 5077 5077 5077 5077 5077 5077 5077 5077 5077 5056 5056 5056 5056 5034 5034 5013 4992 4992 4992 5013 5013 5013 5013 5034 5056 5077 5099 5121 5121 5189 5235 5235 5235 5235 5235 5258 5235 5235 5189 5189 5189 5166 5166 5121 5121 5121 5166 5166 5189 5189 5235 5258 5305 5329 5353 5353 5402 5402 5402 5402 5353 5353 5329 0 0 0 0 0 0 0 0 0 3206 3189 3172 3172 3172 3155 3130 0 0 0 0 0 0 0 0 0 0 0 0 0 0 0 1519 1517 1517 1515 1515 1513 1513 1513 1515 1517 1517 1517 1521 1523 5329 5329 5329 5329 5329 5329 5329 5329 5305 5305 5329 5329 5305 5329 5329 5329 5329 5329 5329 5329 5305 5258 5258 5258 5235 5235 5189 5189 5166 5121 5121 5166 5166 5189 5189 5235 5258 5329 5353 5353 5402 5427 5477 5528 5554 5580 5607 5633 5633 5633 5633 5633 5633 5633 5633 5607 5580 5554 5554 5528 5528 5554 5528 5528 5528 5554 5580 5607 5633 5633 5633 5633 5660 5633 5633 5633 5633 5633 5633 5607 5607 5607 5580 5580 5554 5528 5528 5502 5477 5427 5427 5427 5402 5353 5353 5353 5353 5329 5329 5329 5329 5305 5305 5305 5305 5258 5258 5258 5258 5258 5258 5258 5305 5305 5305 5329 5329 5329 5353 5353 5353 5402 5402 5353 5353 5353 5329 5329 5305 5305 5258 5258 5258 5258 5235 5235 5235 5235 5235 5235 5235 5235 5189 5189 5189 5189 5166 5166 5121 5121 5099 5099 5077 5077 5056 5034 5034 5013 5013 5013 5013 5034 5034 5056 5056 5056 5056 5077 5099 5077 5077 5099 5099 5166 5235 5305 5305 5329 5353 5402 5402 5427 5427 5402 5402 5402 5402 5427 5427 5402 5402 5329 5305 5258 5235 5166 5099 5034 4992 4971 4950 4929 4909 4888 4888 4848 4829 4829 0 0 0 0 0 0 0 0 0 0 0 0 0 0 0 0 0 0 0 0 0 0 0 0 0 0 0 0 0 0 0 0 0 0 0 0 0 0 0 0 0 0 0 0 0 0 0 0 0 0 0 0 0 0 0 0 0 0 0 0 0 0 0 0 0 0 0 0 0 0 0 511 509 504 503 503 502 501 500 499 498 497 496 496 496 496 495 494 493 492 491 490 490 490 489 489 488 487 485 484 483 483 482 482 481 480 480 480 480 481 481 482 482 483 483 483 483 484 484 485 485 486 487 488 488 489 489 490 490 491 491 492 493 494 495 496 496 497 497 499 500 501 502 502 503 503 503 503 503 503 503 503 502 501 501 500 499 499 498 497 497 497 497 496 496 496 496 495 495 495 495 495 495 495 495 495 495 495 495 495 495 495 495 495 495 494 494 493 493 492 491 491 490 490 490 489 489 489 488 487 487 485 485 484 484 483 483 483 483 483 482 482 482 481 481 480 479 479 479 478 478 478 478
0 0 0 0 0 0 0 0 0 0 0 0 0 0 0 0 0 0 5013 0 4992 4971 4971 4971 4971 4950 4929 4929 4929 4929 4929 4929 4929 4971 4971 4992 4992 5013 5034 5056 5056 5056 5056 5056 5056 5013 5013 4992 4992 4971 4971 4950 4950 4929 4929 4929 4909 4909 4909 4909 4909 4909 4909 4909 4909 4909 4909 4909 4929 4929 4929 4950 4971 4971 4971 4971 4971 4971 4971 4971 4971 4971 4971 4971 4950 4929 4929 4929 4929 4929 4929 4929 4950 4971 4992 4992 5013 5034 5034 5056 5077 5077 5099 5099 5099 5099 5099 5099 5099 5099 5077 5056 5077 5056 5056 5034 5013 5013 5013 4992 4992 4992 4992 4992 4992 5013 5034 5056 5077 5077 5099 5166 5189 5189 5235 5235 5235 5235 5235 5235 5189 5189 5189 5189 5166 5166 5189 5189 5189 5235 5258 5258 5305 5305 5329 5329 5329 5353 5353 5353 5353 5305 5305 5258 0 0 0 0 0 0 0 0 0 3223 3206 3197 3189 3189 3180 3155 0 0 0 0 0 0 0 0 0 0 0 0 0 0 0 1517 1515 1515 1515 1513 1513 1511 1513 1513 1515 1515 1515 1519 0 5329 5329 5329 5329 5305 5305 5305 5305 5258 5305 5305 5305 5258 5305 5305 5305 5305 5329 5329 5329 5305 5305 5305 5305 5258 5258 5258 5235 5189 5235 5235 5235 5235 5258 5258 5305 5329 5402 5402 5427 5477 5477 5502 5554 5580 5607 5633 5633 5660 5660 5660 5660 5660 5660 5633 5633 5633 5607 5607 5607 5607 5607 5607 5580 5580 5607 5633 5660 5660 5660 5660 5660 5688 5688 5660 5660 5660 5660 5660 5660 5633 5633 5633 5633 5633 5607 5580 5554 5554 5528 5502 5502 5502 5477 5477 5427 5427 5427 5427 5402 5402 5402 5353 5402 5353 5353 5353 5353 5353 5353 5353 5353 5402 5402 5402 5427 5427 5427 5427 5477 5477 5477 5427 5427 5427 5402 5402 5353 5353 5329 5329 5305 5305 5305 5305 5305 5258 5258 5305 5258 5258 5258 5235 5235 5235 5189 5189 5166 5121 5121 5099 5099 5077 5056 5034 5034 5013 5013 5013 5013 5034 5056 5077 5099 5099 5099 5121 5166 5166 5121 5121 5121 5166 5235 5305 5353 5353 5402 5427 5427 5477 5502 5477 5477 5427 5427 5427 5477 5477 5427 5402 5353 5305 5258 5235 5166 5077 5034 4992 4971 4950 4929 4909 4888 4888 4868 4848 0 0 0 0 0 0 0 0 0 0 0 0 0 0 0 0 0 0 0 0 0 0 0 0 0 0 0 0 0 0 0 0 0 0 0 0 0 0 0 0 0 0 0 0 0 0 0 0 0 0 0 0 0 0 0 0 0 0 0 0 0 0 0 0 0 0 0 0 0 0 0 515 511 508 504 503 502 501 500 499 498 497 497 496 496 495 495 494 493 492 491 491 490 490 489 489 489 487 486 485 484 483 483 482 481 480 479 479 479 479 479 479 480 481 482 482 483 483 483 483 484 484 485 486 487 487 488 489 489 490 490 490 491 492 493 494 495 496 496 497 498 499 500 501 502 502 503 503 503 503 503 503 502 502 501 501 500 499 498 498 497 497 497 496 496 496 496 495 495 495 495 494 494 494 494 494 494 494 494 494 494 494 494 494 494 493 493 493 492 491 491 491 490 490 490 490 489 489 488 488 487 486 485 484 484 484 483 483 483 483 483 482 481 481 481 480 480 479 479 479 478 478 478 478
0 0 0 0 0 0 0 0 0 0 0 0 0 0 0 0 0 0 0 0 0 0 4992 4992 4971 4971 4971 4971 4971 4971 4971 4971 4971 4971 4971 4992 4992 5013 5013 5034 5034 5056 5056 5056 5034 5013 4992 4992 4992 4971 4950 4929 4929 4909 4909 4909 4909 4909 4909 4909 4909 4909 4909 4909 4909 4909 4909 4909 4929 4929 4929 4950 4950 4971 4971 4971 4971 4950 4929 4929 4950 4929 4929 4929 4909 4909 4909 4909 4909 4929 4929 4929 4950 4971 4992 4992 5013 5034 5034 5056 5077 5077 5099 5099 5099 5099 5099 5099 5099 5099 5077 5077 5077 5077 5077 5056 5034 5034 5013 5013 4992 4992 4992 4992 4992 4992 4992 5013 5034 5056 5077 5099 5121 5189 5189 5189 5235 5235 5235 5235 5235 5235 5235 5235 5235 5235 5235 5258 5258 5305 5305 5329 5353 5353 5353 5353 5402 5402 5402 5402 5402 5353 5329 5329 5258 0 0 0 0 0 0 0 0 3232 3215 3206 3206 3206 3197 0 0 0 0 0 0 0 0 0 0 0 0 0 0 0 0 1517 1515 1515 1513 1513 1511 1511 1511 1513 1513 1515 1515 1517 0 5329 5305 5305 5305 5305 5305 5305 5258 5258 5258 5258 5235 5235 5235 5258 5258 5258 5305 5305 5305 5305 5305 5305 5305 5305 5305 5305 5305 5305 5329 5305 5305 5329 5329 5353 5353 5402 5427 5477 5502 5528 5528 5554 5580 5607 5633 5633 5660 5660 5688 5688 5688 5660 5660 5660 5660 5660 5633 5633 5633 5633 5633 5633 5633 5633 5660 5660 5688 5688 5688 5688 5688 5688 5688 5688 5688 5688 5688 5660 5660 5660 5660 5660 5660 5660 5633 5633 5633 5607 5607 5580 5554 5554 5554 5528 5528 5528 5502 5502 5502 5502 5502 5477 5477 5477 5477 5477 5477 5477 5477 5477 5477 5502 5502 5502 5502 5502 5502 5528 5528 5502 5502 5502 5502 5477 5477 5427 5427 5402 5353 5353 5353 5329 5329 5329 5329 5329 5329 5329 5329 5305 5305 5258 5258 5258 5235 5235 5189 5166 5166 5121 5099 5099 5077 5056 5056 5034 5034 5034 5056 5077 5099 5166 5189 5235 5235 5235 5235 5235 5235 5189 5189 5235 5305 5329 5402 5427 5427 5477 5502 5502 5528 5502 5502 5477 5477 5477 5477 5477 5427 5402 5353 5329 5258 5235 5121 5077 5034 4992 4971 4971 4929 4909 4909 4888 4868 0 0 0 0 0 0 0 0 0 0 0 0 0 0 0 0 0 0 0 0 0 0 0 0 0 0 0 0 0 0 0 0 0 0 0 0 0 0 0 0 0 0 0 0 0 0 0 0 0 0 0 0 0 0 0 0 0 0 0 0 0 0 0 0 0 0 0 0 0 0 0 515 512 510 0 0 0 0 500 499 498 497 497 496 496 496 495 494 493 492 491 491 490 490 490 489 489 488 487 486 485 484 483 482 481 480 479 478 478 478 478 478 478 479 479 480 481 481 482 483 483 483 483 484 484 485 486 487 488 489 489 490 490 490 491 491 493 494 495 496 496 497 498 499 500 501 501 502 502 502 502 502 502 502 501 501 500 499 499 498 497 497 497 496 496 496 496 495 495 494 494 493 493 493 493 493 493 493 493 493 493 493 493 493 493 493 492 492 491 491 491 490 490 490 490 490 489 489 488 488 487 486 486 485 484 484 484 483 483 483 483 482 482 481 481 480 480 479 479 478 478 478 478 478 478
0 0 0 0 0 0 0 0 0 0 0 0 0 0 0 0 0 0 0 0 0 0 5056 5034 5013 5013 4992 4992 4992 4992 4971 4992 4992 4992 4992 5013 5034 5034 5056 5056 5077 5077 5077 5056 5056 5034 5013 4992 4992 4971 4929 4929 4909 4909 4909 4888 4888 4888 4909 4909 4909 4909 4909 4909 4909 4909 4929 4929 4929 4929 4929 4929 4950 4950 4929 4950 4929 4929 4929 4909 4929 4909 4929 4909 4909 4888 4909 4909 4909 4909 4929 4929 4950 4971 4992 4992 5013 5013 5034 5056 5056 5077 5099 5099 5099 5099 5099 5099 5099 5099 5099 5077 5099 5077 5077 5056 5034 5034 5013 5013 5013 4992 4992 4992 4971 4992 4992 4992 4992 5013 5056 5077 5099 5166 5189 5189 5235 5235 5235 5258 5258 5258 5258 5258 5258 5258 5305 5305 5329 5329 5353 5402 5402 5402 5427 5427 5427 5427 5427 5477 5427 5402 5402 5402 5353 5258 5235 0 0 0 0 0 0 0 3232 0 0 0 0 0 0 0 0 0 0 0 0 0 0 0 0 0 0 0 1519 1515 1515 1515 1513 1511 1509 1509 1511 1513 1513 1515 1515 1515 0 5305 5305 5305 5258 5258 5258 5235 5235 5235 5235 5189 5189 5166 5189 5235 5235 5235 5235 5258 5258 5258 5305 5305 5329 5329 5329 5353 5353 5353 5402 5402 5427 5427 5427 5427 5477 5477 5502 5528 5554 5580 5607 5607 5633 5633 5660 5660 5688 5688 5688 5688 5688 5688 5688 5688 5688 5660 5660 5660 5660 5660 5660 5660 5660 5688 5688 5688 5715 5715 5715 5743 5743 5743 5715 5715 5688 5688 5688 5688 5688 5688 5688 5688 5688 5660 5660 5660 5660 5660 5633 5633 5633 5633 5607 5607 5580 5580 5580 5580 5580 5580 5554 5554 5554 5554 5554 5554 5554 5554 5554 5554 5554 5580 5580 5554 5554 5580 5580 5554 5554 5554 5554 5528 5528 5528 5502 5477 5477 5427 5427 5427 5402 5402 5402 5402 5353 5353 5353 5353 5353 5353 5353 5329 5329 5305 5305 5258 5235 5235 5189 5189 5166 5121 5099 5099 5077 5077 5077 5099 5121 5166 5235 5258 5329 5329 5329 5329 5329 5329 5305 5305 5258 5305 5329 5402 5427 5477 5477 5502 5528 5528 5554 5528 5528 5502 5502 5502 5502 5477 5427 5402 5353 5329 5258 5189 5121 5099 5034 4992 4992 4971 4929 4929 4909 4888 0 0 0 0 0 0 0 0 0 0 0 0 0 0 0 0 0 0 0 0 0 0 0 0 0 0 0 0 0 0 0 0 0 0 0 0 0 0 0 0 0 0 0 0 0 0 0 0 0 0 0 0 0 0 0 0 0 0 0 0 0 0 0 0 0 0 0 0 0 0 0 0 512 0 0 0 0 0 0 499 497 497 496 496 496 496 495 494 493 492 491 490 490 490 489 489 489 488 487 486 485 484 483 483 482 481 479 479 478 478 477 477 477 478 478 478 479 479 480 481 481 482 483 483 483 484 484 485 486 487 488 489 489 489 490 490 491 492 493 494 495 496 496 497 498 499 500 501 501 501 502 502 502 502 501 501 500 500 499 499 498 497 497 497 496 496 496 495 495 494 494 493 493 492 492 491 492 492 492 492 492 492 492 492 492 492 491 491 491 491 490 490 490 490 490 490 489 489 489 488 487 487 486 485 484 484 484 483 483 483 483 482 482 482 481 481 480 479 479 479 478 478 478 478 478 478
0 0 0 0 0 0 0 0 0 0 0 0 0 0 0 0 0 0 0 0 0 0 5121 5121 5099 5099 5077 5056 5056 5034 5013 5034 5013 5034 5056 5077 5077 5099 5099 5121 5121 5121 5121 5121 5121 5077 5077 5034 5013 4992 4971 4950 4929 4929 4909 4909 4909 4929 4929 4929 4929 4929 4929 4929 4929 4929 4929 4929 4929 4929 4929 4929 4929 4929 4929 4929 4929 4909 4909 4909 4909 4909 4909 4888 4888 4888 4888 4909 4909 4909 4929 4929 4950 4971 4992 4992 5013 5034 5034 5056 5077 5077 5077 5056 5056 5056 5056 5077 5077 5077 5077 5077 5077 5077 5077 5077 5056 5034 5013 4992 4992 4992 4971 4971 4971 4971 4992 4992 4992 4992 5034 5077 5099 5121 5189 5189 5235 5258 5258 5258 5305 5305 5305 5305 5329 5329 5353 5353 5402 5402 5427 5427 5477 5477 5477 5502 5502 5502 5502 5502 5477 5477 5477 5427 5427 5353 5329 5189 5121 4658 0 0 0 0 0 0 0 0 0 0 0 0 0 0 0 0 0 0 0 0 0 0 0 0 0 1515 1515 1513 1513 1511 1509 1509 1509 1513 1513 1513 1515 1515 0 5235 5235 5189 5189 5189 5189 5189 5189 5166 5166 5121 5166 5166 5166 5166 5189 5235 5235 5235 5258 5305 5305 5329 5353 5353 5353 5402 5427 5477 5477 5502 5502 5528 5528 5528 5554 5554 5554 5580 5607 5633 5633 5633 5660 5660 5688 5688 5688 5688 5715 5715 5715 5688 5688 5688 5688 5688 5688 5688 5688 5688 5688 5688 5688 5715 5715 5743 5743 5743 5743 5743 5743 5743 5743 5743 5715 5715 5715 5715 5715 5688 5688 5688 5688 5688 5688 5688 5688 5660 5660 5660 5660 5660 5633 5633 5633 5633 5633 5633 5633 5633 5633 5633 5607 5607 5607 5607 5607 5607 5607 5607 5607 5607 5633 5633 5607 5607 5607 5607 5607 5580 5580 5580 5554 5554 5528 5502 5502 5502 5477 5477 5477 5477 5477 5477 5477 5427 5427 5427 5427 5427 5402 5402 5402 5353 5353 5329 5329 5305 5258 5258 5235 5189 5166 5166 5121 5121 5166 5189 5258 5305 5353 5402 5427 5477 5477 5477 5477 5427 5402 5353 5353 5329 5353 5427 5477 5502 5502 5528 5554 5554 5580 5554 5528 5528 5528 5502 5502 5477 5427 5402 5353 5329 5258 5235 5166 5099 5056 5013 4992 4971 4971 4929 4929 4909 0 0 0 0 0 0 0 0 0 0 0 0 0 0 0 0 0 0 0 0 0 0 0 0 0 0 0 0 0 0 0 0 0 0 0 0 0 0 0 0 0 0 0 0 0 0 0 0 0 0 0 0 0 0 0 0 0 0 0 0 0 0 0 0 0 0 0 0 0 0 0 0 0 0 0 0 0 0 0 497 497 496 496 496 495 495 494 493 492 491 490 490 490 489 489 489 488 487 487 485 484 484 483 483 482 480 479 478 478 477 477 477 477 477 477 478 478 478 479 480 480 481 482 482 483 483 484 484 485 486 487 488 488 489 489 490 490 491 492 493 495 496 496 497 497 498 499 499 500 501 501 501 501 501 501 500 500 499 499 499 498 497 497 496 496 496 496 495 495 494 493 492 492 491 491 491 491 491 491 491 491 491 491 491 491 491 491 490 490 490 490 490 490 489 489 489 489 489 488 487 487 486 485 485 484 484 484 483 483 483 483 482 482 481 481 480 479 479 479 478 478 478 478 478 478 478
0 0 0 0 0 0 0 0 0 0 0 0 0 0 0 0 0 0 0 0 0 0 5189 5235 5189 5166 5121 5121 5099 5099 5077 5077 5077 5077 5099 5121 5166 5166 5166 5189 5189 5189 5235 5189 5189 5166 5121 5099 5077 5034 5013 4992 4971 4971 4950 4950 4971 4971 4950 4950 4971 4971 4971 4971 4971 4971 4950 4950 4950 4950 4929 4950 4929 4929 4929 4929 4909 4909 4909 4888 4909 4888 4888 4888 4888 4888 4888 4909 4909 4929 4929 4950 4971 4992 4992 4992 5013 5034 5034 5056 5056 5077 5077 5077 5077 5077 5077 5077 5077 5077 5077 5077 5077 5056 5056 5034 5034 5013 5013 4992 4992 4992 4971 4992 4971 4971 4971 4971 4971 4992 5013 5056 5077 5121 5189 5189 5235 5305 5305 5329 5329 5353 5353 5353 5402 5427 5427 5477 5477 5502 5502 5502 5528 5528 5528 5528 5528 5554 5528 5528 5528 5528 5528 5502 5502 5427 5402 5305 5258 0 0 0 0 0 0 0 0 0 0 0 0 0 0 0 0 0 0 0 0 0 0 0 0 0 1521 1517 1515 1515 1515 1513 1509 1509 1511 1513 1513 1515 1515 1515 0 5235 5235 5235 5235 5235 5189 5189 5166 5166 5166 5166 5121 5121 5166 5166 5189 5235 5258 5258 5305 5329 5353 5353 5402 5402 5477 5477 5528 5528 5554 5580 5607 5607 5607 5607 5633 5633 5633 5633 5633 5660 5660 5688 5688 5688 5688 5715 5715 5743 5743 5743 5715 5715 5715 5715 5715 5715 5715 5715 5743 5743 5743 5743 5743 5743 5743 5743 5771 5743 5771 5743 5743 5743 5743 5743 5743 5743 5715 5715 5715 5715 5715 5715 5715 5715 5688 5688 5688 5688 5688 5688 5688 5688 5660 5660 5660 5660 5660 5660 5660 5660 5660 5660 5660 5660 5633 5633 5633 5633 5633 5633 5633 5633 5633 5633 5633 5633 5633 5633 5633 5607 5607 5607 5580 5580 5554 5554 5528 5528 5528 5528 5528 5528 5528 5528 5502 5502 5502 5502 5502 5502 5502 5502 5477 5477 5427 5427 5402 5353 5353 5329 5329 5258 5258 5258 5235 5258 5305 5329 5402 5427 5502 5554 5580 5607 5580 5580 5554 5528 5502 5477 5427 5402 5427 5477 5502 5528 5554 5554 5580 5580 5580 5580 5554 5554 5528 5528 5502 5477 5427 5402 5353 5329 5305 5235 5166 5121 5077 5034 5013 4992 4971 4950 4929 0 0 0 0 0 0 0 0 0 0 0 0 0 0 0 0 0 0 0 0 0 0 0 0 0 0 0 0 0 0 0 0 0 0 0 0 0 0 0 0 0 0 0 0 0 0 0 0 0 0 0 0 0 0 0 0 0 0 0 0 0 0 0 0 0 0 0 0 0 0 0 0 0 0 0 0 0 0 0 0 497 496 496 496 495 495 494 493 492 491 490 490 490 489 489 489 488 487 487 486 485 484 483 483 482 481 480 479 0 477 477 477 477 477 477 477 477 477 477 478 478 479 480 481 482 482 483 483 484 484 485 486 487 488 488 489 489 490 490 491 493 494 495 496 496 497 497 498 498 499 499 500 500 500 500 500 500 499 499 499 498 497 497 497 496 496 496 496 495 494 493 493 491 491 491 490 490 490 490 490 490 490 490 490 490 490 490 490 490 490 490 490 489 489 489 489 489 488 488 487 486 486 485 485 484 484 484 483 483 483 483 483 482 482 481 481 480 479 479 479 478 478 478 478 478 478 478
0 0 0 0 0 0 0 0 0 0 0 0 0 0 0 0 0 0 0 0 0 0 5329 5305 5258 5258 5235 5189 5189 5166 5121 5121 5121 5121 5166 5166 5189 5189 5189 5235 5235 5258 5258 5258 5258 5235 5189 5189 5166 5099 5077 5056 5013 5013 4992 4992 4992 4992 4992 4992 4992 4992 4992 4992 4992 4992 4971 4971 4971 4971 4950 4929 4929 4929 4929 4909 4909 4909 4909 4888 4888 4888 4888 4888 4888 4888 4909 4909 4929 4929 4950 4971 4992 4992 5013 5034 5056 5056 5077 5077 5077 5077 5077 5077 5077 5077 5077 5077 5077 5077 5056 5056 5056 5056 5056 5034 5013 5013 4992 4992 4992 4971 4971 4971 4971 4971 4971 4971 4971 4992 4992 5013 5056 5077 5166 5189 5258 5305 5329 5329 5353 5402 5402 5402 5427 5477 5477 5477 5502 5528 5528 5554 5580 5580 5580 5607 5607 5607 5607 5580 5580 5554 5554 5554 5528 5502 5502 5477 5353 0 0 0 0 0 0 0 0 0 0 0 0 0 0 0 0 0 0 0 0 0 0 0 0 0 1523 1521 1519 1517 1515 1515 1513 1511 1513 1515 1515 1515 1515 1517 0 5235 5189 5235 5235 5189 5189 5189 5166 5121 5121 5121 5121 5121 5121 5189 5235 5258 5305 5305 5353 5402 5427 5477 5477 5502 5528 5554 5607 5607 5633 5633 5660 5633 5660 5660 5660 5660 5660 5688 5688 5688 5688 5715 5715 5715 5715 5715 5715 5715 5743 5743 5743 5715 5715 5743 5743 5743 5743 5743 5743 5771 5771 5771 5771 5771 5771 5771 5771 5771 5771 5771 5743 5743 5743 5743 5743 5743 5743 5743 5743 5743 5715 5715 5715 5715 5715 5715 5715 5715 5715 5688 5688 5688 5688 5688 5688 5688 5688 5688 5688 5688 5688 5688 5688 5688 5688 5688 5688 5688 5688 5688 5660 5660 5660 5660 5660 5660 5633 5633 5633 5633 5607 5607 5607 5607 5580 5580 5580 5580 5554 5554 5554 5554 5554 5554 5580 5580 5580 5580 5580 5580 5554 5554 5554 5554 5528 5528 5502 5502 5477 5477 5427 5402 5402 5402 5402 5402 5427 5477 5528 5580 5633 5633 5660 5660 5660 5660 5633 5633 5607 5554 5528 5502 5528 5554 5554 5580 5580 5607 5607 5607 5607 5580 5580 5554 5554 5528 5502 5477 5427 5402 5353 5329 5305 5258 5189 5121 5099 5056 5013 4992 4971 4971 0 0 0 0 0 0 0 0 0 0 0 0 0 0 0 0 0 0 0 0 0 0 0 0 0 0 0 0 0 0 0 0 0 0 0 0 0 0 0 0 0 0 0 0 0 0 0 0 0 0 0 0 0 0 0 0 0 0 0 0 0 0 0 0 0 0 0 0 0 0 0 0 0 0 0 502 502 500 498 497 497 496 496 495 495 495 494 493 492 491 490 490 490 489 489 489 488 487 486 486 485 484 483 483 483 482 481 479 478 0 477 477 476 476 476 476 476 477 477 477 477 478 478 479 480 481 481 482 483 483 484 484 485 485 487 487 488 489 489 490 490 491 493 494 495 496 496 496 497 497 498 498 499 499 499 499 499 499 499 499 498 498 497 497 497 496 496 496 495 495 493 493 492 491 491 490 490 490 490 490 490 490 490 490 490 490 490 490 490 490 490 489 489 489 489 489 488 488 488 487 486 485 485 485 484 484 484 484 483 483 483 483 482 482 482 481 481 480 479 479 479 478 478 478 478 478 478 478
0 0 0 0 0 0 0 0 0 0 0 0 0 0 0 0 0 0 0 0 0 0 5402 5402 5353 5329 5329 5305 5258 5235 5189 5189 5189 5189 5189 5235 5258 5258 5258 5305 5305 5329 5329 5329 5305 5305 5305 5258 5258 5189 5166 5121 5099 5077 5056 5056 5056 5056 5056 5056 5056 5034 5034 5034 5034 5013 4992 4992 4992 4971 4971 4971 4950 4950 4929 4909 4909 4888 4888 4888 4888 4888 4888 4888 4888 4909 4909 4929 4929 4971 4971 4992 5013 5034 5056 5056 5077 5077 5099 5099 5121 5121 5121 5121 5099 5121 5121 5099 5077 5077 5077 5077 5077 5077 5056 5034 5013 4992 4992 4971 4971 4950 4950 4950 4950 4950 4950 4929 4971 4971 4992 5013 5056 5099 5166 5189 5258 5329 5353 5402 5402 5402 5427 5427 5427 5477 5477 5502 5528 5528 5554 5580 5607 5633 5633 5633 5633 5633 5633 5633 5633 5607 5580 5580 5580 5554 5554 5528 5528 0 0 0 0 0 0 0 0 0 0 0 0 0 0 0 0 0 0 0 0 0 0 0 0 0 1526 1523 1521 1521 1519 1517 1515 1515 1515 1517 1517 1519 1519 1521 0 5235 5189 5235 5235 5189 5189 5189 5166 5166 5166 5121 5121 5121 5166 5189 5235 5305 5329 5353 5402 5477 5502 5528 5554 5580 5607 5633 5633 5660 5660 5660 5688 5688 5688 5688 5688 5688 5715 5715 5743 5743 5743 5743 5743 5743 5743 5743 5743 5743 5743 5743 5743 5715 5743 5743 5743 5743 5771 5771 5771 5771 5771 5771 5771 5799 5771 5771 5771 5771 5771 5771 5743 5743 5743 5743 5743 5743 5743 5743 5743 5743 5743 5743 5715 5715 5743 5743 5743 5743 5715 5715 5715 5715 5688 5688 5688 5688 5688 5715 5715 5715 5715 5715 5715 5715 5688 5688 5688 5688 5688 5688 5688 5688 5688 5688 5660 5660 5660 5633 5633 5633 5633 5633 5633 5633 5633 5607 5607 5607 5607 5607 5607 5607 5607 5633 5633 5633 5633 5633 5633 5633 5633 5633 5633 5633 5633 5607 5607 5580 5580 5554 5554 5528 5528 5528 5528 5554 5554 5607 5633 5660 5688 5715 5743 5743 5743 5715 5688 5688 5660 5633 5633 5580 5607 5607 5607 5607 5607 5633 5633 5607 5607 5607 5580 5580 5554 5528 5502 5477 5477 5427 5402 5353 5329 5258 5235 5166 5121 5077 5034 5013 4992 0 0 0 0 0 0 0 0 0 0 0 0 0 0 0 0 0 0 0 0 0 0 0 0 0 0 0 0 0 0 0 0 0 0 0 0 0 0 0 0 0 0 0 0 0 0 0 0 0 0 0 0 0 0 0 0 0 0 0 0 0 0 0 0 0 0 0 0 0 0 0 0 0 0 0 502 501 500 499 497 497 496 496 496 495 495 494 493 492 491 490 490 490 489 489 488 487 487 486 485 485 484 484 483 483 482 481 480 479 478 477 477 477 477 476 476 476 476 476 476 477 477 477 478 478 478 479 480 481 482 483 483 483 484 485 485 487 487 488 489 489 490 490 491 493 494 495 496 496 496 497 497 497 498 498 498 499 498 499 499 498 498 498 497 497 497 496 496 496 495 494 493 492 491 491 490 490 490 490 490 490 490 490 489 490 490 489 489 489 489 489 489 489 489 488 488 488 487 487 487 486 485 485 484 484 484 484 483 483 483 483 483 483 482 482 482 481 480 480 479 479 478 478 478 478 478 478 477 477
0 0 0 0 0 0 0 0 0 0 0 0 0 0 0 0 0 0 0 0 0 0 0 5477 5427 5427 5402 5353 5329 5305 5258 5258 5258 5235 5258 5258 5258 5258 5258 5305 5305 5329 5329 5329 5329 5329 5305 5329 5305 5258 5258 5189 5166 5166 5166 5166 5166 5121 5121 5121 5121 5121 5099 5099 5099 5077 5056 5056 5034 5013 5013 4992 4992 4971 4950 4929 4929 4909 4909 4888 4888 4888 4909 4909 4909 4909 4929 4950 4971 4971 4992 5013 5034 5056 5077 5099 5121 5121 5121 5166 5166 5166 5166 5166 5166 5166 5121 5121 5121 5121 5099 5077 5077 5077 5056 5034 5013 4992 4992 4971 4971 4950 4950 4950 4950 4929 4950 4950 4971 4971 4992 5013 5034 5077 5166 5189 5258 5305 5329 5353 5353 5402 5402 5427 5427 5477 5477 5502 5528 5554 5580 5607 5633 5633 5660 5660 5660 5660 5660 5660 5660 5660 5633 5633 5633 5633 5633 5633 5633 5607 0 0 0 0 0 0 0 0 0 0 0 0 0 0 0 0 0 0 0 0 0 0 0 0 1526 1524 1523 1521 1519 1517 1515 1515 1515 1519 1519 1521 1521 1523 0 5235 5235 5235 5189 5189 5235 5166 5166 5166 5166 5121 5121 5121 5166 5189 5258 5329 5353 5402 5477 5502 5554 5580 5580 5633 5633 5660 5660 5688 5688 5715 5743 5743 5743 5743 5771 5771 5771 5771 5771 5771 5771 5771 5771 5771 5743 5743 5743 5743 5743 5743 5743 5743 5743 5743 5743 5771 5771 5771 5771 5799 5799 5828 5828 5799 5799 5799 5771 5771 5771 5771 5743 5743 5743 5743 5743 5743 5743 5743 5743 5743 5743 5743 5743 5743 5743 5743 5743 5743 5743 5743 5743 5743 5743 5743 5743 5743 5743 5743 5743 5743 5743 5743 5743 5743 5743 5743 5743 5743 5743 5715 5715 5715 5688 5688 5688 5660 5660 5660 5660 5660 5660 5633 5633 5633 5633 5633 5633 5633 5633 5633 5633 5633 5633 5660 5660 5660 5660 5660 5660 5660 5660 5660 5688 5660 5660 5660 5660 5660 5660 5633 5633 5633 5633 5633 5633 5633 5660 5688 5715 5743 5771 5771 5828 5828 5799 5771 5771 5743 5715 5688 5660 5633 5633 5633 5633 5633 5633 5633 5633 5633 5633 5607 5607 5580 5554 5528 5502 5502 5477 5427 5402 5353 5329 5258 5235 5189 5121 5099 5077 5034 0 0 0 0 0 0 0 0 0 0 0 0 0 0 0 0 0 0 0 0 0 0 0 0 0 0 0 0 0 0 0 0 0 0 0 0 0 0 0 0 0 0 0 0 0 0 0 0 0 0 0 0 0 0 0 0 0 0 0 0 0 0 0 0 0 0 0 0 0 0 0 0 0 0 0 0 0 499 498 0 497 496 496 496 495 495 493 493 491 491 490 490 490 489 489 488 487 487 486 485 485 484 484 483 483 483 482 481 480 478 478 477 477 477 476 476 476 475 475 476 476 476 476 477 477 477 478 478 479 480 481 482 483 483 483 484 485 485 486 487 488 489 490 490 491 491 493 494 495 496 496 496 496 497 497 497 497 498 498 498 498 498 498 497 497 497 497 496 496 496 495 494 493 491 491 490 490 490 490 489 489 489 489 489 489 489 489 489 489 489 489 489 489 488 488 487 487 487 486 486 485 485 485 484 484 484 483 483 483 483 483 483 483 483 482 482 482 481 481 480 479 479 478 478 478 478 478 477 477 477
0 0 0 0 0 0 0 0 0 0 0 0 0 0 0 0 0 0 0 0 0 0 0 5502 5477 5427 5427 5402 5353 5305 5305 5258 5258 5258 5258 5258 5258 5258 5258 5258 5258 5305 5305 5329 5329 5329 5329 5329 5329 5305 5305 5235 5235 5235 5235 5189 5189 5189 5189 5189 5166 5166 5166 5166 5121 5166 5121 5121 5099 5077 5056 5034 5013 4992 4971 4971 4950 4929 4929 4929 4929 4929 4929 4929 4929 4950 4971 4971 4992 5013 5034 5056 5099 5121 5166 5189 5189 5235 5235 5258 5258 5258 5258 5235 5235 5235 5235 5189 5166 5166 5166 5166 5121 5099 5099 5077 5034 5034 4992 4971 4971 4971 4971 4992 4992 4992 4992 4992 5013 5034 5056 5077 5099 5166 5189 5258 5305 5329 5353 5402 5402 5402 5427 5427 5477 5477 5502 5528 5554 5607 5633 5633 5660 5688 5688 5715 5715 5715 5715 5743 5715 5715 5715 5688 5715 5743 5743 5743 5743 0 0 0 0 0 0 0 0 0 0 0 0 0 0 0 0 0 0 0 0 0 0 0 0 0 1530 1524 1523 1523 1523 1519 1517 1517 1517 1519 1521 1523 1523 1524 0 5258 5235 5235 5235 5235 5189 5189 5166 5166 5166 5121 5166 5166 5189 5235 5305 5353 5427 5477 5528 5580 5607 5633 5633 5660 5660 5688 5688 5715 5743 5743 5771 5771 5771 5771 5771 5799 5799 5799 5799 5799 5799 5771 5771 5771 5771 5743 5743 5743 5743 5743 5743 5743 5743 5743 5771 5771 5799 5799 5828 5828 5856 5856 5856 5828 5828 5799 5771 5771 5771 5771 5743 5743 5743 5743 5743 5743 5743 5743 5743 5743 5743 5743 5743 5743 5743 5743 5743 5743 5743 5743 5743 5743 5743 5743 5743 5743 5743 5743 5771 5771 5771 5771 5771 5771 5771 5771 5771 5743 5743 5743 5743 5715 5715 5688 5688 5688 5688 5660 5660 5660 5660 5660 5660 5660 5660 5660 5660 5660 5660 5660 5660 5660 5660 5688 5688 5688 5715 5715 5715 5715 5715 5715 5715 5715 5715 5715 5715 5715 5688 5688 5688 5688 5688 5688 5688 5688 5743 5743 5771 5799 5856 5915 5915 5915 5915 5856 5828 5799 5771 5743 5688 5688 5688 5688 5660 5660 5660 5660 5633 5633 5633 5633 5607 5607 5580 5554 5528 5502 5502 5477 5427 5353 5329 5305 5258 5189 5166 5121 5077 0 0 0 0 0 0 0 0 0 0 0 0 0 0 0 0 0 0 0 0 0 0 0 0 0 0 0 0 0 0 0 0 0 0 0 0 0 0 0 0 0 0 0 0 0 0 0 0 0 0 0 0 0 0 0 0 0 0 0 0 0 0 0 0 0 0 0 0 0 0 0 0 0 0 0 0 0 0 499 498 497 496 496 496 495 495 493 493 492 491 490 490 490 489 489 488 487 487 486 485 485 484 484 483 483 482 482 481 480 479 478 477 477 477 476 476 475 475 474 474 474 475 475 476 476 476 477 477 478 478 479 480 481 482 483 483 483 484 485 485 487 487 488 489 490 490 491 492 493 494 495 496 496 496 496 497 497 497 497 497 497 498 497 497 497 497 497 496 496 496 495 495 493 493 491 491 490 490 490 489 489 489 489 489 489 489 489 489 489 489 489 488 488 488 487 487 487 486 486 485 485 484 484 484 484 483 483 483 483 483 483 483 483 483 482 482 482 481 481 481 480 479 479 479 478 478 478 477 477 477 477
0 0 0 0 0 0 0 0 0 0 0 0 0 0 0 0 0 0 0 0 0 0 5528 0 5477 5477 5427 5402 5353 5329 5305 5305 5258 5258 5258 5258 5258 5258 5258 5258 5258 5305 5305 5305 5305 5329 5329 5329 5329 5329 5305 5258 5258 5258 5258 5258 5235 5235 5235 5235 5235 5235 5235 5189 5189 5189 5166 5166 5121 5099 5077 5077 5034 5013 4992 4992 4971 4971 4971 4971 4950 4950 4971 4971 4992 4992 4992 5034 5056 5077 5121 5166 5189 5235 5258 5305 5305 5329 5329 5353 5353 5353 5353 5329 5329 5329 5329 5305 5258 5258 5258 5235 5235 5189 5166 5121 5099 5077 5034 5013 5013 4992 5013 5034 5034 5034 5056 5077 5099 5121 5166 5166 5189 5258 5305 5329 5353 5402 5427 5427 5427 5427 5427 5427 5477 5477 5502 5528 5554 5580 5633 5660 5660 5688 5715 5743 5743 5771 5771 5771 5771 5771 5771 5771 5771 5771 5799 5799 5828 5828 0 0 0 0 0 0 0 0 0 0 0 0 0 0 0 0 0 0 0 0 0 0 0 0 1530 1526 1526 1524 1524 1523 1519 1519 1521 1523 1524 1524 1524 1530 0 0 5258 5258 5258 5258 5235 5235 5189 5189 5189 5189 5189 5235 5235 5305 5353 5427 5477 5528 5580 5607 5633 5660 5660 5688 5688 5715 5743 5743 5743 5771 5771 5771 5771 5799 5799 5799 5828 5828 5799 5799 5799 5799 5799 5771 5771 5743 5743 5743 5743 5743 5743 5743 5743 5771 5771 5799 5828 5856 5856 5886 5886 5886 5886 5856 5828 5799 5799 5771 5771 5771 5743 5743 5743 5743 5743 5743 5743 5743 5743 5743 5743 5743 5743 5743 5743 5743 5743 5743 5771 5771 5771 5771 5771 5771 5771 5771 5771 5771 5771 5771 5799 5799 5799 5799 5799 5771 5771 5771 5771 5743 5743 5743 5715 5715 5688 5688 5688 5688 5688 5688 5688 5660 5660 5660 5660 5660 5660 5660 5660 5688 5688 5688 5688 5715 5743 5743 5743 5743 5743 5743 5743 5771 5771 5771 5771 5743 5743 5743 5743 5743 5743 5743 5743 5743 5743 5771 5799 5828 5886 5915 5945 6005 6036 6005 6005 5915 5886 5856 5828 5771 5743 5743 5715 5715 5688 5688 5660 5660 5660 5660 5633 5633 5633 5607 5607 5580 5554 5528 5528 5502 5427 5402 5353 5329 5305 5258 5189 5166 0 0 0 0 0 0 0 0 0 0 0 0 0 0 0 0 0 0 0 0 0 0 0 0 0 0 0 0 0 0 0 0 0 0 0 0 0 0 0 0 0 0 0 0 0 0 0 0 0 0 0 0 0 0 0 0 0 0 0 0 0 0 0 0 0 0 0 0 0 0 0 0 0 0 0 0 0 0 0 0 497 497 496 496 496 495 494 493 491 491 490 490 489 489 489 488 487 486 485 485 484 484 484 483 483 482 482 481 480 479 479 478 477 477 477 476 475 474 474 473 473 473 474 474 474 475 475 476 477 477 477 478 479 480 481 482 483 483 483 484 484 485 487 488 489 489 490 490 491 492 493 494 495 495 496 496 496 496 497 497 497 497 497 497 497 497 497 497 496 496 496 495 494 493 492 491 490 490 490 490 489 489 489 489 488 488 488 488 488 488 488 488 488 487 487 487 486 485 485 485 484 484 484 483 483 483 483 483 483 483 483 483 483 483 482 482 482 482 481 481 481 480 479 479 479 478 478 477 477 477 477 477
